x,y,z
-12.78496075,4.898067,0.3210454
-12.73496056,5.09806728,-0.2289546
-12.73496056,5.148067,-0.0289546
-12.73496056,5.19806719,-0.0289546
-12.88496017,5.29806709,-0.2789546
-12.88496017,5.34806728,-0.0289546
-12.58495998,5.09806728,-0.2289546
-12.68496037,5.34806728,-0.37895459
-12.58495998,5.29806709,-0.2289546
-13.13496017,4.84806728,0.42104539
-13.28496075,4.79806709,0.67104542
-13.13496017,4.898067,0.42104539
-13.03496075,4.84806728,0.42104539
-13.28496075,4.79806709,0.87104541
-13.23496056,4.79806709,1.02104545
-13.18496037,4.84806728,1.02104545
-13.23496056,4.898067,0.87104541
-13.28496075,4.99806738,0.87104541
-13.28496075,5.04806709,1.17104542
-13.23496056,5.09806728,1.0710454
-13.28496075,5.34806728,0.97104537
-12.98496056,6.19806719,0.1210454
-12.63496017,6.24806738,-0.2789546
-12.58495998,6.24806738,-0.32895461
-12.58495998,6.24806738,-0.2789546
-12.68496037,6.09806728,-0.1789546
-12.68496037,6.148067,-0.1789546
-13.23496056,5.69806719,0.92104542
-13.23496056,5.74806738,0.92104542
-13.23496056,5.74806738,0.97104537
-13.28496075,5.84806728,0.87104541
-13.18496037,5.69806719,0.97104537
-13.18496037,5.79806709,0.92104542
-12.98496056,5.74806738,0.97104537
-13.28496075,5.898067,0.92104542
-15.23496056,7.04806709,-1.22895455
-15.18496037,7.04806709,-1.22895455
-15.58495998,6.49806738,-1.07895458
-15.33495998,6.54806709,-1.02895463
-15.48496056,6.54806709,-0.87895459
-15.53496075,6.648067,-0.4289546
-15.48496056,6.648067,-0.4289546
-15.68496037,6.84806728,-0.77895463
-15.53496075,6.79806709,-0.4289546
-15.53496075,6.99806738,-0.62895459
-15.53496075,6.898067,-0.4289546
-15.33495998,6.69806719,-0.4289546
-15.43496037,7.04806709,-0.77895463
-15.48496056,6.898067,-0.47895461
-15.43496037,6.99806738,-0.57895458
-15.38496017,6.94806719,-0.57895458
-15.38496017,6.898067,-0.47895461
-15.33495998,6.99806738,-0.4289546
-15.18496037,6.648067,-1.02895463
-14.98496056,6.44806719,-0.82895458
-15.03496075,6.54806709,-1.07895458
-14.93496037,6.49806738,-1.07895458
-14.93496037,6.648067,-1.07895458
-15.08495998,6.54806709,-0.72895461
-14.98496056,6.648067,-0.77895463
-14.93496037,6.648067,-0.62895459
-14.98496056,6.49806738,-0.57895458
-15.03496075,6.74806738,-0.97895461
-14.93496037,7.04806709,-1.02895463
-14.98496056,6.94806719,-0.82895458
-14.93496037,6.99806738,-0.97895461
-14.98496056,7.04806709,-0.82895458
-15.13496017,6.84806728,-0.4289546
-15.23496056,6.99806738,-0.62895459
-15.18496037,7.04806709,-0.77895463
-15.28496075,6.94806719,-0.47895461
-15.28496075,7.04806709,-0.57895458
-15.23496056,7.04806709,-0.57895458
-14.98496056,6.84806728,-0.77895463
-14.93496037,6.84806728,-0.77895463
-14.98496056,6.898067,-0.77895463
-14.93496037,6.94806719,-0.62895459
-14.98496056,6.99806738,-0.77895463
-14.98496056,6.99806738,-0.62895459
-15.03496075,6.94806719,-0.47895461
-15.08495998,7.04806709,-0.4289546
-14.98496056,6.94806719,-0.47895461
-15.63496017,7.29806709,-1.37895465
-15.63496017,7.34806728,-1.37895465
-15.53496075,7.29806709,-1.37895465
-15.48496056,7.29806709,-1.37895465
-15.33495998,7.34806728,-1.32895458
-15.33495998,7.398067,-1.32895458
-15.53496075,7.59806728,-1.52895463
-15.53496075,7.648067,-1.52895463
-15.58495998,7.69806719,-1.52895463
-15.58495998,7.84806728,-1.52895463
-15.43496037,7.648067,-1.47895455
-15.48496056,7.74806738,-1.47895455
-15.43496037,7.74806738,-1.47895455
-15.23496056,7.398067,-1.32895458
-15.18496037,7.398067,-1.32895458
-15.13496017,7.398067,-1.32895458
-15.13496017,7.44806719,-1.22895455
-15.03496075,7.34806728,-1.22895455
-15.03496075,7.398067,-1.32895458
-15.03496075,7.398067,-1.22895455
-14.93496037,7.29806709,-1.22895455
-14.93496037,7.398067,-1.32895458
-15.28496075,7.59806728,-1.47895455
-15.18496037,7.59806728,-1.47895455
-15.13496017,7.49806738,-1.22895455
-15.28496075,7.69806719,-1.47895455
-15.23496056,7.74806738,-1.47895455
-15.08495998,7.59806728,-1.47895455
-15.03496075,7.59806728,-1.47895455
-14.98496056,7.59806728,-1.4289546
-14.93496037,7.648067,-1.4289546
-15.68496037,7.34806728,-1.1789546
-15.68496037,7.34806728,-0.87895459
-15.48496056,7.24806738,-0.97895461
-15.43496037,7.19806719,-0.97895461
-15.48496056,7.19806719,-0.87895459
-15.43496037,7.398067,-1.07895458
-15.38496017,7.44806719,-1.12895465
-15.53496075,7.148067,-0.77895463
-15.53496075,7.24806738,-0.77895463
-15.58495998,7.09806728,-0.47895461
-15.53496075,7.19806719,-0.52895463
-15.68496037,7.34806728,-0.72895461
-15.63496017,7.29806709,-0.72895461
-15.33495998,7.09806728,-0.77895463
-15.23496056,7.24806738,-0.9289546
-15.23496056,7.44806719,-1.12895465
-15.18496037,7.29806709,-1.12895465
-15.13496017,7.398067,-1.12895465
-15.28496075,7.29806709,-0.97895461
-15.23496056,7.34806728,-0.9289546
-15.13496017,7.44806719,-0.9289546
-15.08495998,7.24806738,-1.12895465
-15.08495998,7.19806719,-1.02895463
-15.03496075,7.24806738,-1.02895463
-14.98496056,7.24806738,-1.1789546
-14.93496037,7.19806719,-1.1789546
-14.93496037,7.24806738,-1.12895465
-14.98496056,7.19806719,-1.02895463
-15.08495998,7.09806728,-0.82895458
-15.08495998,7.19806719,-0.97895461
-15.03496075,7.19806719,-0.97895461
-14.93496037,7.09806728,-0.97895461
-14.93496037,7.148067,-0.82895458
-14.98496056,7.19806719,-0.82895458
-15.03496075,7.29806709,-1.12895465
-15.08495998,7.34806728,-1.02895463
-15.08495998,7.44806719,-1.02895463
-15.03496075,7.398067,-1.02895463
-15.03496075,7.34806728,-0.9289546
-15.08495998,7.398067,-0.9289546
-14.93496037,7.398067,-0.9289546
-14.93496037,7.44806719,-0.87895459
-15.23496056,7.09806728,-0.77895463
-15.13496017,7.09806728,-0.77895463
-15.13496017,7.24806738,-0.77895463
-14.98496056,7.09806728,-0.57895458
-14.93496037,7.09806728,-0.57895458
-14.98496056,7.09806728,-0.4289546
-15.08495998,7.29806709,-0.77895463
-15.08495998,7.34806728,-0.47895461
-15.03496075,7.398067,-0.57895458
-14.98496056,7.44806719,-0.4289546
-15.13496017,7.54806709,-1.1789546
-15.08495998,7.59806728,-1.12895465
-15.08495998,7.648067,-1.12895465
-14.98496056,7.49806738,-1.12895465
-14.98496056,7.648067,-1.07895458
-14.98496056,7.49806738,-0.97895461
-14.93496037,7.54806709,-0.87895459
-15.03496075,7.69806719,-1.1789546
-15.08495998,7.79806709,-1.1789546
-15.03496075,7.79806709,-1.1789546
-14.93496037,7.59806728,-0.57895458
-14.93496037,7.59806728,-0.47895461
-14.93496037,7.69806719,-0.57895458
-14.93496037,7.69806719,-0.4289546
-14.93496037,7.84806728,-0.57895458
-14.83495998,6.29806709,-1.27895463
-14.73496056,6.44806719,-1.22895455
-14.88496017,6.99806738,-1.22895455
-14.78496075,6.94806719,-1.22895455
-14.63496017,6.94806719,-1.22895455
-14.38496017,6.29806709,-1.22895455
-14.43496037,6.898067,-1.37895465
-14.13496017,7.04806709,-1.27895463
-14.78496075,6.398067,-1.07895458
-14.88496017,6.648067,-0.97895461
-14.58495998,6.44806719,-1.02895463
-14.53496075,6.398067,-1.02895463
-14.63496017,6.648067,-1.02895463
-14.53496075,6.49806738,-1.02895463
-14.53496075,6.59806728,-1.02895463
-14.58495998,6.59806728,-0.82895458
-14.83495998,6.29806709,-0.4289546
-14.78496075,6.79806709,-1.02895463
-14.73496056,6.79806709,-1.02895463
-14.88496017,6.84806728,-0.82895458
-14.73496056,6.69806719,-0.9289546
-14.83495998,6.99806738,-1.1789546
-14.73496056,6.898067,-1.02895463
-14.73496056,6.99806738,-1.1789546
-14.88496017,6.99806738,-0.82895458
-14.53496075,6.79806709,-0.97895461
-14.63496017,6.99806738,-1.1789546
-14.58495998,6.898067,-1.1789546
-14.58495998,6.898067,-1.12895465
-14.53496075,6.99806738,-1.1789546
-14.63496017,7.04806709,-0.82895458
-14.88496017,6.84806728,-0.62895459
-14.83495998,6.74806738,-0.57895458
-14.88496017,6.99806738,-0.57895458
-14.83495998,6.99806738,-0.57895458
-14.63496017,6.84806728,-0.77895463
-14.68496037,6.84806728,-0.6789546
-14.53496075,6.74806738,-0.62895459
-14.53496075,6.84806728,-0.77895463
-14.58495998,6.84806728,-0.6789546
-14.53496075,6.79806709,-0.6789546
-14.58495998,6.94806719,-0.77895463
-14.53496075,6.94806719,-0.62895459
-14.53496075,6.99806738,-0.77895463
-14.53496075,7.04806709,-0.62895459
-14.43496037,6.648067,-1.02895463
-14.48496056,6.74806738,-1.02895463
-14.43496037,6.69806719,-1.02895463
-14.48496056,6.84806728,-1.1789546
-14.38496017,6.69806719,-1.1789546
-14.33495998,6.69806719,-1.02895463
-14.38496017,6.79806709,-1.1789546
-14.33495998,6.79806709,-1.1789546
-14.48496056,6.69806719,-0.82895458
-14.43496037,6.74806738,-0.82895458
-14.48496056,6.79806709,-0.82895458
-14.33495998,6.69806719,-0.82895458
-14.38496017,6.79806709,-0.97895461
-14.48496056,6.898067,-1.1789546
-14.43496037,6.898067,-1.1789546
-14.33495998,7.04806709,-1.12895465
-14.38496017,6.94806719,-0.97895461
-14.38496017,6.898067,-0.82895458
-14.38496017,7.04806709,-0.97895461
-14.23496056,6.79806709,-1.1789546
-14.18496037,6.898067,-1.12895465
-14.18496037,6.898067,-0.82895458
-14.13496017,6.898067,-0.82895458
-14.43496037,6.69806719,-0.62895459
-14.43496037,6.74806738,-0.4289546
-14.48496056,6.84806728,-0.4289546
-14.33495998,6.74806738,-0.4289546
-14.33495998,6.94806719,-0.62895459
-14.38496017,6.99806738,-0.77895463
-14.38496017,7.04806709,-0.77895463
-14.33495998,7.04806709,-0.77895463
-14.38496017,6.99806738,-0.62895459
-14.38496017,7.04806709,-0.4289546
-14.18496037,6.84806728,-0.77895463
-14.28496075,6.898067,-0.62895459
-14.23496056,6.99806738,-0.62895459
-14.13496017,6.898067,-0.62895459
-14.18496037,6.99806738,-0.77895463
-14.18496037,6.99806738,-0.62895459
-14.18496037,7.04806709,-0.62895459
-14.28496075,6.99806738,-0.4289546
-14.13496017,7.04806709,-0.47895461
-14.88496017,7.148067,-1.22895455
-14.88496017,7.24806738,-1.22895455
-14.73496056,7.24806738,-1.37895465
-14.88496017,7.34806728,-1.32895458
-14.83495998,7.398067,-1.32895458
-14.78496075,7.34806728,-1.32895458
-14.63496017,7.148067,-1.37895465
-14.53496075,7.148067,-1.37895465
-14.68496037,7.398067,-1.27895463
-14.63496017,7.44806719,-1.27895463
-14.58495998,7.29806709,-1.32895458
-14.53496075,7.44806719,-1.32895458
-14.58495998,7.398067,-1.27895463
-14.88496017,7.648067,-1.4289546
-14.83495998,7.648067,-1.4289546
-14.73496056,7.59806728,-1.4289546
-14.78496075,7.54806709,-1.27895463
-14.88496017,7.84806728,-1.57895458
-14.83495998,7.79806709,-1.52895463
-14.68496037,7.54806709,-1.4289546
-14.68496037,7.54806709,-1.27895463
-14.63496017,7.59806728,-1.27895463
-14.53496075,7.49806738,-1.32895458
-14.53496075,7.59806728,-1.32895458
-14.53496075,7.69806719,-1.27895463
-14.38496017,7.24806738,-1.32895458
-14.48496056,7.44806719,-1.32895458
-14.43496037,7.44806719,-1.27895463
-14.38496017,7.44806719,-1.27895463
-14.28496075,7.09806728,-1.32895458
-14.23496056,7.19806719,-1.27895463
-14.13496017,7.148067,-1.27895463
-14.13496017,7.19806719,-1.27895463
-14.28496075,7.29806709,-1.27895463
-14.28496075,7.34806728,-1.27895463
-14.23496056,7.44806719,-1.27895463
-14.13496017,7.34806728,-1.27895463
-14.43496037,7.59806728,-1.4289546
-14.48496056,7.49806738,-1.32895458
-14.48496056,7.74806738,-1.22895455
-14.18496037,7.49806738,-1.22895455
-14.13496017,7.49806738,-1.22895455
-14.28496075,7.69806719,-1.52895463
-14.28496075,7.69806719,-1.37895465
-14.23496056,7.69806719,-1.37895465
-14.28496075,7.84806728,-1.32895458
-14.28496075,7.79806709,-1.22895455
-14.18496037,7.74806738,-1.37895465
-14.18496037,7.79806709,-1.32895458
-14.88496017,7.09806728,-1.02895463
-14.88496017,7.148067,-1.02895463
-14.78496075,7.09806728,-1.1789546
-14.78496075,7.148067,-1.1789546
-14.78496075,7.24806738,-1.12895465
-14.73496056,7.19806719,-1.1789546
-14.88496017,7.148067,-0.82895458
-14.88496017,7.34806728,-1.12895465
-14.88496017,7.29806709,-0.97895461
-14.88496017,7.34806728,-0.97895461
-14.78496075,7.29806709,-0.87895459
-14.73496056,7.34806728,-0.87895459
-14.68496037,7.09806728,-1.1789546
-14.68496037,7.24806738,-1.12895465
-14.63496017,7.19806719,-1.12895465
-14.53496075,7.09806728,-1.1789546
-14.53496075,7.19806719,-1.1789546
-14.53496075,7.24806738,-1.1789546
-14.53496075,7.24806738,-1.12895465
-14.68496037,7.19806719,-0.97895461
-14.68496037,7.24806738,-0.97895461
-14.63496017,7.19806719,-0.97895461
-14.53496075,7.09806728,-0.97895461
-14.58495998,7.19806719,-0.97895461
-14.53496075,7.19806719,-0.97895461
-14.58495998,7.398067,-1.07895458
-14.53496075,7.44806719,-1.07895458
-14.88496017,7.148067,-0.77895463
-14.83495998,7.09806728,-0.62895459
-14.83495998,7.29806709,-0.77895463
-14.83495998,7.34806728,-0.77895463
-14.83495998,7.398067,-0.77895463
-14.83495998,7.44806719,-0.77895463
-14.78496075,7.34806728,-0.62895459
-14.73496056,7.44806719,-0.77895463
-14.78496075,7.44806719,-0.47895461
-14.73496056,7.398067,-0.4289546
-14.63496017,7.148067,-0.77895463
-14.63496017,7.148067,-0.62895459
-14.63496017,7.19806719,-0.77895463
-14.63496017,7.24806738,-0.62895459
-14.58495998,7.09806728,-0.77895463
-14.53496075,7.24806738,-0.77895463
-14.58495998,7.24806738,-0.62895459
-14.63496017,7.34806728,-0.62895459
-14.63496017,7.34806728,-0.4289546
-14.68496037,7.44806719,-0.47895461
-14.63496017,7.44806719,-0.47895461
-14.58495998,7.34806728,-0.4289546
-14.58495998,7.44806719,-0.47895461
-14.53496075,7.44806719,-0.47895461
-14.53496075,7.44806719,-0.4289546
-14.73496056,7.54806709,-0.97895461
-14.73496056,7.648067,-0.82895458
-14.73496056,7.54806709,-0.77895463
-14.83495998,7.49806738,-0.57895458
-14.83495998,7.59806728,-0.57895458
-14.83495998,7.648067,-0.57895458
-14.88496017,7.648067,-0.47895461
-14.73496056,7.49806738,-0.57895458
-14.73496056,7.59806728,-0.57895458
-14.73496056,7.648067,-0.57895458
-14.78496075,7.648067,-0.4289546
-14.88496017,7.69806719,-0.57895458
-14.88496017,7.74806738,-0.57895458
-14.83495998,7.74806738,-0.57895458
-14.88496017,7.69806719,-0.47895461
-14.88496017,7.74806738,-0.4289546
-14.78496075,7.69806719,-0.57895458
-14.78496075,7.74806738,-0.4289546
-14.58495998,7.648067,-0.77895463
-14.53496075,7.648067,-0.77895463
-14.68496037,7.54806709,-0.4289546
-14.63496017,7.49806738,-0.4289546
-14.63496017,7.54806709,-0.4289546
-14.68496037,7.59806728,-0.57895458
-14.68496037,7.59806728,-0.4289546
-14.63496017,7.69806719,-0.4289546
-14.63496017,7.74806738,-0.4289546
-14.68496037,7.79806709,-0.4289546
-14.53496075,7.79806709,-0.47895461
-14.38496017,7.19806719,-1.07895458
-14.33495998,7.19806719,-1.07895458
-14.43496037,7.148067,-0.9289546
-14.48496056,7.19806719,-0.97895461
-14.48496056,7.24806738,-0.97895461
-14.38496017,7.19806719,-0.97895461
-14.48496056,7.29806709,-1.07895458
-14.48496056,7.34806728,-1.07895458
-14.28496075,7.148067,-0.82895458
-14.23496056,7.148067,-0.82895458
-14.13496017,7.148067,-0.9289546
-14.13496017,7.19806719,-0.9289546
-14.13496017,7.398067,-1.1789546
-14.48496056,7.148067,-0.77895463
-14.33495998,7.09806728,-0.77895463
-14.33495998,7.09806728,-0.62895459
-14.33495998,7.24806738,-0.62895459
-14.43496037,7.24806738,-0.4289546
-14.33495998,7.148067,-0.4289546
-14.33495998,7.24806738,-0.4289546
-14.48496056,7.34806728,-0.57895458
-14.33495998,7.34806728,-0.57895458
-14.33495998,7.29806709,-0.4289546
-14.23496056,7.09806728,-0.77895463
-14.13496017,7.24806738,-0.77895463
-14.18496037,7.24806738,-0.62895459
-14.23496056,7.24806738,-0.57895458
-14.18496037,7.24806738,-0.4289546
-14.28496075,7.44806719,-0.47895461
-14.38496017,7.54806709,-1.07895458
-14.33495998,7.79806709,-0.9289546
-14.48496056,7.648067,-0.62895459
-14.33495998,7.69806719,-0.57895458
-14.28496075,7.648067,-0.57895458
-15.33495998,6.44806719,0.37104541
-15.48496056,6.54806709,0.1210454
-15.38496017,6.648067,0.0710454
-15.33495998,6.59806728,0.0710454
-15.33495998,6.49806738,0.37104541
-15.33495998,6.54806709,0.37104541
-15.53496075,6.74806738,-0.2289546
-15.58495998,6.79806709,-0.1789546
-15.53496075,6.84806728,-0.1789546
-15.53496075,6.898067,-0.2289546
-15.58495998,7.04806709,-0.2789546
-15.53496075,7.04806709,-0.2289546
-15.68496037,6.99806738,-0.0789546
-15.68496037,7.04806709,-0.0789546
-15.53496075,6.898067,-0.1789546
-15.33495998,6.84806728,-0.1289546
-15.38496017,6.94806719,-0.2289546
-15.43496037,6.898067,-0.1289546
-15.43496037,6.94806719,-0.1289546
-15.43496037,6.99806738,-0.1789546
-15.38496017,6.99806738,-0.1289546
-15.33495998,7.04806709,-0.1789546
-15.58495998,6.69806719,0.3210454
-15.58495998,6.94806719,0.0210454
-15.53496075,6.898067,0.0210454
-15.38496017,6.79806709,0.3210454
-15.48496056,6.898067,0.0210454
-15.43496037,7.04806709,0.0710454
-15.33495998,7.04806709,0.0210454
-15.33495998,6.99806738,0.27104539
-15.13496017,6.398067,-0.32895461
-15.13496017,6.34806728,-0.1789546
-15.18496037,6.398067,-0.1789546
-15.08495998,6.29806709,-0.37895459
-15.08495998,6.34806728,-0.1289546
-14.98496056,6.49806738,-0.37895459
-14.93496037,6.648067,-0.37895459
-15.23496056,6.44806719,0.37104541
-15.23496056,6.648067,0.0710454
-15.13496017,6.49806738,0.0710454
-14.98496056,6.59806728,0.37104541
-15.18496037,7.04806709,-0.2289546
-15.03496075,6.84806728,-0.37895459
-15.23496056,6.69806719,0.0210454
-15.28496075,6.79806709,0.0710454
-15.18496037,6.74806738,0.0210454
-15.18496037,6.74806738,0.0710454
-15.13496017,6.74806738,0.0710454
-15.28496075,6.74806738,0.3210454
-15.23496056,6.84806728,0.27104539
-15.23496056,6.79806709,0.3210454
-15.18496037,6.79806709,0.27104539
-15.28496075,6.99806738,0.0210454
-15.18496037,6.898067,0.27104539
-15.18496037,6.94806719,0.27104539
-15.13496017,6.898067,0.2210454
-15.18496037,6.99806738,0.27104539
-15.13496017,6.99806738,0.27104539
-14.98496056,6.84806728,0.27104539
-14.98496056,6.898067,0.27104539
-15.43496037,6.59806728,0.62104541
-15.68496037,6.59806728,0.92104542
-15.58495998,6.59806728,0.92104542
-15.63496017,6.49806738,1.12104535
-15.33495998,6.29806709,1.0710454
-15.43496037,6.648067,0.87104541
-15.38496017,6.49806738,0.97104537
-15.38496017,6.648067,0.87104541
-15.33495998,6.648067,0.97104537
-15.43496037,6.59806728,1.02104545
-15.43496037,6.69806719,0.5710454
-15.38496017,6.69806719,0.5710454
-15.33495998,6.69806719,0.5710454
-15.33495998,6.79806709,0.5710454
-15.43496037,6.74806738,0.77104539
-15.43496037,6.79806709,1.12104535
-15.18496037,6.648067,0.4710454
-15.28496075,6.59806728,0.62104541
-14.93496037,6.29806709,0.5710454
-14.93496037,6.398067,0.5710454
-15.03496075,6.29806709,0.62104541
-15.08495998,6.59806728,0.52104539
-15.08495998,6.648067,0.5710454
-14.98496056,6.648067,0.52104539
-15.03496075,6.648067,0.62104541
-14.93496037,6.59806728,0.62104541
-14.98496056,6.648067,0.72104537
-15.23496056,6.29806709,1.02104545
-15.28496075,6.59806728,0.87104541
-15.13496017,6.648067,0.87104541
-14.98496056,6.29806709,1.12104535
-15.08495998,6.648067,0.87104541
-15.03496075,6.59806728,0.87104541
-14.93496037,6.648067,0.87104541
-15.18496037,6.69806719,0.52104539
-15.18496037,6.84806728,0.52104539
-15.13496017,6.79806709,0.5710454
-15.13496017,6.84806728,0.52104539
-15.13496017,6.74806738,0.67104542
-15.13496017,6.69806719,0.77104539
-15.18496037,6.898067,0.52104539
-15.23496056,6.99806738,0.72104537
-15.08495998,6.74806738,0.52104539
-15.08495998,6.74806738,0.5710454
-15.08495998,6.79806709,0.4710454
-14.98496056,6.69806719,0.4710454
-14.98496056,6.74806738,0.4710454
-15.08495998,6.69806719,0.77104539
-15.08495998,6.79806709,0.62104541
-14.98496056,6.84806728,0.62104541
-14.98496056,6.898067,0.62104541
-15.28496075,6.74806738,0.97104537
-15.28496075,6.84806728,0.97104537
-15.13496017,6.69806719,0.8210454
-15.18496037,6.79806709,0.97104537
-15.28496075,6.69806719,1.12104535
-15.18496037,6.69806719,1.02104545
-15.18496037,6.79806709,1.02104545
-15.28496075,6.898067,0.97104537
-15.23496056,6.898067,0.97104537
-15.28496075,6.898067,1.0710454
-15.58495998,7.09806728,-0.37895459
-15.58495998,7.148067,-0.32895461
-15.43496037,7.148067,-0.37895459
-15.33495998,7.19806719,-0.1289546
-15.48496056,7.34806728,-0.37895459
-15.48496056,7.398067,-0.37895459
-15.38496017,7.29806709,-0.2789546
-15.43496037,7.09806728,0.0710454
-15.33495998,7.148067,0.0210454
-15.43496037,7.19806719,0.27104539
-15.38496017,7.09806728,0.2210454
-15.38496017,7.148067,0.2210454
-15.33495998,7.34806728,0.17104539
-15.33495998,7.398067,0.0210454
-15.38496017,7.44806719,0.17104539
-15.33495998,7.34806728,0.2210454
-15.38496017,7.398067,0.2210454
-15.33495998,7.398067,0.2210454
-15.33495998,7.44806719,0.2210454
-15.48496056,7.49806738,0.27104539
-15.28496075,7.09806728,-0.1789546
-15.18496037,7.34806728,-0.2789546
-15.13496017,7.34806728,-0.2789546
-15.08495998,7.09806728,-0.37895459
-15.08495998,7.09806728,-0.0289546
-14.93496037,7.29806709,-0.0289546
-15.23496056,7.09806728,0.0210454
-15.23496056,7.09806728,0.0710454
-15.23496056,7.09806728,0.2210454
-15.28496075,7.19806719,0.2210454
-15.28496075,7.19806719,0.27104539
-15.28496075,7.24806738,0.2210454
-15.18496037,7.09806728,0.2210454
-15.18496037,7.24806738,0.2210454
-15.13496017,7.19806719,0.2210454
-15.03496075,7.09806728,0.0210454
-14.98496056,7.59806728,-0.2789546
-14.93496037,7.648067,-0.2789546
-14.93496037,7.84806728,0.27104539
-14.98496056,7.79806709,0.3210454
-15.58495998,7.29806709,0.4710454
-15.43496037,7.19806719,0.4710454
-15.43496037,7.19806719,0.52104539
-15.38496017,7.29806709,0.42104539
-15.38496017,7.148067,1.02104545
-15.38496017,7.79806709,0.77104539
-14.93496037,7.84806728,0.52104539
-15.03496075,7.84806728,0.77104539
-14.98496056,7.79806709,0.77104539
-14.93496037,7.84806728,0.72104537
-15.13496017,7.54806709,1.02104545
-15.18496037,7.59806728,1.0710454
-15.13496017,7.74806738,1.17104542
-15.13496017,7.84806728,1.02104545
-15.13496017,7.79806709,1.17104542
-14.98496056,7.59806728,1.17104542
-14.93496037,7.79806709,0.87104541
-15.03496075,7.74806738,1.02104545
-15.08495998,7.84806728,1.02104545
-14.98496056,7.79806709,1.02104545
-14.83495998,6.34806728,-0.2289546
-14.88496017,6.44806719,-0.2289546
-14.88496017,6.34806728,-0.1789546
-14.88496017,6.49806738,-0.1789546
-14.58495998,6.398067,-0.0289546
-14.78496075,6.398067,0.37104541
-14.73496056,6.398067,0.37104541
-14.88496017,6.59806728,0.0710454
-14.83495998,6.49806738,0.37104541
-14.63496017,6.398067,0.17104539
-14.68496037,6.29806709,0.3210454
-14.63496017,6.29806709,0.37104541
-14.68496037,6.54806709,0.0210454
-14.63496017,6.54806709,0.0210454
-14.63496017,6.49806738,0.17104539
-14.63496017,6.59806728,0.0210454
-14.68496037,6.49806738,0.27104539
-14.78496075,6.99806738,-0.2289546
-14.53496075,6.84806728,-0.2289546
-14.63496017,6.99806738,-0.2289546
-14.53496075,6.94806719,-0.2289546
-14.53496075,6.898067,-0.0289546
-14.53496075,7.04806709,-0.0289546
-14.88496017,6.74806738,0.27104539
-14.88496017,6.74806738,0.3210454
-14.78496075,6.94806719,0.0210454
-14.63496017,6.84806728,0.0710454
-14.58495998,6.94806719,0.0210454
-14.53496075,6.898067,0.0710454
-14.48496056,6.29806709,-0.0289546
-14.38496017,6.34806728,-0.0289546
-14.48496056,6.34806728,0.0210454
-14.43496037,6.29806709,0.0210454
-14.43496037,6.34806728,0.17104539
-14.38496017,6.29806709,0.0210454
-14.48496056,6.29806709,0.37104541
-14.28496075,6.29806709,0.0210454
-14.33495998,6.74806738,-0.2289546
-14.43496037,6.74806738,-0.0289546
-14.33495998,6.74806738,-0.0789546
-14.38496017,6.84806728,-0.1789546
-14.43496037,6.94806719,-0.2289546
-14.48496056,6.99806738,-0.2289546
-14.43496037,7.04806709,-0.2289546
-14.38496017,7.04806709,-0.37895459
-14.38496017,6.99806738,-0.2789546
-14.33495998,7.04806709,-0.2289546
-14.43496037,6.94806719,-0.0789546
-14.48496056,6.99806738,-0.0789546
-14.33495998,6.898067,-0.1789546
-14.38496017,7.04806709,-0.1789546
-14.38496017,7.04806709,-0.0789546
-14.33495998,6.99806738,-0.0789546
-14.23496056,6.84806728,-0.2789546
-14.23496056,6.74806738,-0.0789546
-14.18496037,6.69806719,-0.0289546
-14.28496075,7.04806709,-0.2789546
-14.18496037,6.99806738,-0.2789546
-14.28496075,6.898067,-0.0789546
-14.23496056,6.898067,-0.0789546
-14.18496037,6.94806719,-0.0789546
-14.43496037,6.69806719,0.1210454
-14.48496056,6.79806709,0.0710454
-14.43496037,6.79806709,0.27104539
-14.43496037,6.99806738,0.0710454
-14.38496017,6.898067,0.0210454
-14.38496017,6.898067,0.1210454
-14.38496017,6.99806738,0.1210454
-14.43496037,7.04806709,0.3210454
-14.38496017,6.94806719,0.27104539
-14.33495998,6.94806719,0.27104539
-14.33495998,6.94806719,0.3210454
-14.23496056,6.79806709,0.1210454
-14.23496056,6.84806728,0.1210454
-14.13496017,6.84806728,0.0710454
-14.18496037,6.79806709,0.1210454
-14.23496056,6.84806728,0.27104539
-14.18496037,6.79806709,0.27104539
-14.28496075,6.898067,0.1210454
-14.28496075,7.04806709,0.0710454
-14.23496056,7.04806709,0.0710454
-14.23496056,6.99806738,0.1210454
-14.13496017,6.94806719,0.0210454
-14.18496037,7.04806709,0.0710454
-14.23496056,6.94806719,0.27104539
-14.28496075,6.898067,0.3210454
-14.23496056,6.898067,0.3210454
-14.28496075,7.04806709,0.27104539
-14.18496037,6.99806738,0.27104539
-14.88496017,6.44806719,0.5710454
-14.78496075,6.34806728,0.42104539
-14.78496075,6.44806719,0.4710454
-14.73496056,6.44806719,0.5710454
-14.83495998,6.44806719,0.62104541
-14.78496075,6.34806728,0.67104542
-14.83495998,6.59806728,0.4710454
-14.88496017,6.49806738,0.62104541
-14.88496017,6.54806709,0.62104541
-14.88496017,6.54806709,0.67104542
-14.88496017,6.54806709,0.77104539
-14.78496075,6.54806709,0.72104537
-14.58495998,6.34806728,0.42104539
-14.68496037,6.34806728,0.67104542
-14.58495998,6.648067,0.52104539
-14.68496037,6.54806709,0.67104542
-14.63496017,6.49806738,0.77104539
-14.88496017,6.34806728,0.97104537
-14.73496056,6.34806728,0.87104541
-14.78496075,6.398067,0.92104542
-14.73496056,6.34806728,1.02104545
-14.73496056,6.49806738,0.8210454
-14.63496017,6.34806728,0.87104541
-14.68496037,6.398067,0.92104542
-14.53496075,6.34806728,0.8210454
-14.58495998,6.34806728,0.97104537
-14.53496075,6.29806709,1.0710454
-14.53496075,6.99806738,0.97104537
-14.33495998,6.34806728,0.77104539
-14.48496056,6.59806728,0.52104539
-14.28496075,6.44806719,0.77104539
-14.18496037,6.49806738,0.52104539
-14.18496037,6.49806738,0.67104542
-14.48496056,6.34806728,0.8210454
-14.43496037,6.34806728,1.02104545
-14.33495998,6.49806738,0.92104542
-14.48496056,6.54806709,1.12104535
-14.28496075,6.34806728,0.92104542
-14.23496056,6.29806709,0.92104542
-14.18496037,6.34806728,0.92104542
-14.13496017,6.398067,0.87104541
-14.13496017,6.44806719,0.87104541
-14.13496017,6.44806719,0.92104542
-14.23496056,6.398067,1.17104542
-14.18496037,6.34806728,1.12104535
-14.13496017,6.34806728,1.17104542
-14.28496075,6.54806709,0.92104542
-14.28496075,6.59806728,0.92104542
-14.28496075,6.648067,0.97104537
-14.23496056,6.59806728,0.92104542
-14.18496037,6.54806709,0.92104542
-14.23496056,6.648067,1.02104545
-14.18496037,6.54806709,1.0710454
-14.43496037,6.99806738,0.52104539
-14.38496017,7.04806709,0.72104537
-14.33495998,7.04806709,0.72104537
-14.18496037,6.79806709,0.4710454
-14.23496056,7.04806709,0.42104539
-14.18496037,7.04806709,0.62104541
-14.43496037,7.04806709,0.92104542
-14.73496056,7.09806728,-0.2289546
-14.88496017,7.24806738,-0.0289546
-14.88496017,7.29806709,-0.0289546
-14.78496075,7.29806709,-0.0289546
-14.58495998,7.09806728,-0.2289546
-14.58495998,7.148067,-0.2289546
-14.68496037,7.24806738,-0.0289546
-14.63496017,7.19806719,-0.0789546
-14.63496017,7.19806719,-0.0289546
-14.53496075,7.09806728,-0.1789546
-14.68496037,7.398067,-0.2789546
-14.63496017,7.398067,-0.2789546
-14.53496075,7.398067,-0.2289546
-14.88496017,7.648067,-0.2789546
-14.73496056,7.54806709,-0.37895459
-14.73496056,7.59806728,-0.2789546
-14.73496056,7.59806728,-0.2289546
-14.73496056,7.648067,-0.2789546
-14.73496056,7.648067,-0.2289546
-14.73496056,7.59806728,-0.0789546
-14.83495998,7.69806719,-0.37895459
-14.83495998,7.74806738,-0.2789546
-14.78496075,7.69806719,-0.2789546
-14.73496056,7.69806719,-0.2289546
-14.73496056,7.74806738,-0.2289546
-14.78496075,7.79806709,-0.37895459
-14.78496075,7.79806709,-0.32895461
-14.73496056,7.79806709,-0.32895461
-14.78496075,7.79806709,-0.2789546
-14.78496075,7.84806728,-0.2789546
-14.73496056,7.74806738,-0.1289546
-14.78496075,7.74806738,-0.0289546
-14.68496037,7.49806738,-0.2289546
-14.68496037,7.54806709,-0.2289546
-14.63496017,7.49806738,-0.2789546
-14.58495998,7.49806738,-0.2789546
-14.53496075,7.648067,-0.32895461
-14.58495998,7.59806728,-0.2789546
-14.58495998,7.648067,-0.2789546
-14.53496075,7.59806728,-0.2789546
-14.68496037,7.69806719,-0.2789546
-14.68496037,7.84806728,-0.2789546
-14.53496075,7.74806738,-0.32895461
-14.53496075,7.74806738,-0.2789546
-14.53496075,7.84806728,-0.2789546
-14.53496075,7.84806728,-0.0789546
-14.73496056,7.74806738,0.0710454
-14.73496056,7.69806719,0.1210454
-14.73496056,7.79806709,0.0710454
-14.73496056,7.74806738,0.3210454
-14.58495998,7.648067,0.37104541
-14.63496017,7.74806738,0.0710454
-14.68496037,7.79806709,0.0710454
-14.63496017,7.79806709,0.17104539
-14.58495998,7.69806719,0.1210454
-14.58495998,7.79806709,0.17104539
-14.68496037,7.74806738,0.3210454
-14.68496037,7.79806709,0.2210454
-14.68496037,7.84806728,0.3210454
-14.58495998,7.84806728,0.37104541
-14.53496075,7.84806728,0.3210454
-14.43496037,7.19806719,-0.2789546
-14.33495998,7.09806728,-0.37895459
-14.33495998,7.09806728,-0.2289546
-14.33495998,7.148067,-0.2789546
-14.43496037,7.148067,-0.1789546
-14.48496056,7.19806719,-0.1789546
-14.38496017,7.24806738,-0.1789546
-14.33495998,7.24806738,-0.1289546
-14.43496037,7.29806709,-0.2789546
-14.43496037,7.44806719,-0.37895459
-14.43496037,7.44806719,-0.2289546
-14.38496017,7.398067,-0.2289546
-14.43496037,7.44806719,-0.0289546
-14.38496017,7.29806709,-0.1289546
-14.33495998,7.34806728,-0.1289546
-14.38496017,7.398067,-0.0789546
-14.23496056,7.148067,-0.37895459
-14.23496056,7.09806728,-0.2789546
-14.23496056,7.19806719,-0.37895459
-14.18496037,7.09806728,-0.2789546
-14.18496037,7.24806738,-0.2789546
-14.13496017,7.24806738,-0.2789546
-14.28496075,7.24806738,-0.1289546
-14.23496056,7.19806719,-0.1289546
-14.18496037,7.148067,-0.0789546
-14.18496037,7.24806738,-0.1289546
-14.28496075,7.29806709,-0.37895459
-14.28496075,7.34806728,-0.2789546
-14.18496037,7.34806728,-0.37895459
-14.13496017,7.44806719,-0.37895459
-14.28496075,7.34806728,-0.0789546
-14.28496075,7.44806719,-0.1289546
-14.18496037,7.34806728,-0.1789546
-14.13496017,7.34806728,-0.0789546
-14.18496037,7.44806719,-0.1289546
-14.33495998,7.148067,0.0710454
-14.38496017,7.19806719,0.27104539
-14.38496017,7.34806728,0.0710454
-14.38496017,7.398067,0.0710454
-14.33495998,7.398067,0.0710454
-14.28496075,7.24806738,0.0710454
-14.23496056,7.19806719,0.0710454
-14.18496037,7.09806728,0.0210454
-14.18496037,7.09806728,0.0710454
-14.13496017,7.148067,0.0210454
-14.13496017,7.148067,0.0710454
-14.13496017,7.19806719,0.0210454
-14.13496017,7.19806719,0.0710454
-14.13496017,7.09806728,0.27104539
-14.13496017,7.19806719,0.27104539
-14.13496017,7.24806738,0.2210454
-14.28496075,7.29806709,0.0710454
-14.28496075,7.44806719,0.0710454
-14.18496037,7.34806728,0.0710454
-14.13496017,7.44806719,0.17104539
-14.13496017,7.44806719,0.27104539
-14.48496056,7.54806709,-0.2289546
-14.33495998,7.54806709,-0.2289546
-14.43496037,7.54806709,-0.1289546
-14.48496056,7.59806728,-0.0789546
-14.43496037,7.59806728,-0.0789546
-14.33495998,7.54806709,-0.1289546
-14.38496017,7.59806728,-0.0789546
-14.48496056,7.74806738,-0.32895461
-14.43496037,7.69806719,-0.32895461
-14.43496037,7.79806709,-0.2789546
-14.48496056,7.69806719,-0.1289546
-14.33495998,7.69806719,-0.0289546
-14.33495998,7.74806738,-0.0789546
-14.33495998,7.79806709,-0.0789546
-14.28496075,7.59806728,-0.2789546
-14.28496075,7.59806728,-0.0789546
-14.18496037,7.54806709,-0.0289546
-14.18496037,7.59806728,-0.0289546
-14.28496075,7.69806719,-0.1289546
-14.28496075,7.74806738,-0.0289546
-14.48496056,7.648067,0.1210454
-14.43496037,7.648067,0.1210454
-14.38496017,7.54806709,0.0210454
-14.38496017,7.648067,0.0210454
-14.38496017,7.59806728,0.17104539
-14.48496056,7.648067,0.2210454
-14.33495998,7.74806738,0.3210454
-14.28496075,7.49806738,0.0210454
-14.28496075,7.648067,0.0710454
-14.28496075,7.648067,0.17104539
-14.18496037,7.49806738,0.0710454
-14.18496037,7.54806709,0.0710454
-14.13496017,7.59806728,0.0710454
-14.13496017,7.49806738,0.3210454
-14.18496037,7.59806728,0.3210454
-14.18496037,7.69806719,0.1210454
-14.13496017,7.69806719,0.1210454
-14.18496037,7.84806728,0.2210454
-14.53496075,7.398067,0.67104542
-14.73496056,7.29806709,0.8210454
-14.68496037,7.148067,0.8210454
-14.63496017,7.19806719,0.92104542
-14.53496075,7.24806738,0.8210454
-14.68496037,7.24806738,1.12104535
-14.68496037,7.34806728,0.8210454
-14.63496017,7.34806728,0.92104542
-14.53496075,7.29806709,0.87104541
-14.58495998,7.398067,0.8210454
-14.53496075,7.44806719,0.87104541
-14.58495998,7.398067,0.92104542
-14.63496017,7.34806728,1.12104535
-14.63496017,7.398067,1.02104545
-14.58495998,7.44806719,1.02104545
-14.53496075,7.398067,1.12104535
-14.78496075,7.84806728,0.52104539
-14.83495998,7.69806719,0.77104539
-14.78496075,7.74806738,0.77104539
-14.78496075,7.79806709,0.77104539
-14.68496037,7.79806709,0.52104539
-14.68496037,7.79806709,0.5710454
-14.63496017,7.79806709,0.52104539
-14.58495998,7.84806728,0.52104539
-14.68496037,7.79806709,0.77104539
-14.53496075,7.69806719,0.62104541
-14.78496075,7.648067,1.0710454
-14.88496017,7.84806728,0.8210454
-14.78496075,7.79806709,0.8210454
-14.78496075,7.69806719,1.02104545
-14.63496017,7.49806738,0.92104542
-14.58495998,7.54806709,0.92104542
-14.58495998,7.59806728,0.8210454
-14.58495998,7.648067,0.8210454
-14.53496075,7.59806728,0.92104542
-14.38496017,7.09806728,0.52104539
-14.48496056,7.24806738,0.67104542
-14.48496056,7.44806719,0.67104542
-14.28496075,7.09806728,0.4710454
-14.28496075,7.148067,0.52104539
-14.23496056,7.19806719,0.42104539
-14.23496056,7.24806738,0.52104539
-14.18496037,7.24806738,0.42104539
-14.18496037,7.24806738,0.52104539
-14.18496037,7.29806709,0.52104539
-14.43496037,7.24806738,0.87104541
-14.38496017,7.148067,0.87104541
-14.38496017,7.19806719,0.87104541
-14.48496056,7.24806738,1.12104535
-14.38496017,7.148067,1.0710454
-14.38496017,7.09806728,1.12104535
-14.33495998,7.24806738,1.02104545
-14.43496037,7.29806709,0.87104541
-14.38496017,7.29806709,0.87104541
-14.38496017,7.34806728,0.87104541
-14.38496017,7.398067,0.87104541
-14.48496056,7.44806719,1.12104535
-14.28496075,7.19806719,1.0710454
-14.28496075,7.44806719,0.97104537
-14.18496037,7.398067,0.92104542
-14.28496075,7.29806709,1.02104545
-14.28496075,7.398067,1.02104545
-14.28496075,7.44806719,1.02104545
-14.48496056,7.54806709,0.67104542
-14.48496056,7.648067,0.72104537
-14.48496056,7.84806728,0.4710454
-14.43496037,7.69806719,0.67104542
-14.43496037,7.74806738,0.62104541
-14.43496037,7.49806738,0.8210454
-14.43496037,7.54806709,0.8210454
-14.43496037,7.648067,0.8210454
-14.43496037,7.648067,0.87104541
-14.33495998,7.54806709,0.8210454
-14.43496037,7.49806738,1.0710454
-14.38496017,7.49806738,1.02104545
-14.43496037,7.69806719,0.8210454
-14.43496037,7.69806719,0.87104541
-14.28496075,7.49806738,0.8210454
-14.28496075,7.54806709,0.8210454
-14.28496075,7.49806738,0.92104542
-15.48496056,8.09806728,-1.62895465
-15.43496037,8.09806728,-1.62895465
-15.38496017,8.2480669,-1.6789546
-15.63496017,7.94806719,-1.52895463
-15.68496037,7.898067,-1.47895455
-15.58495998,8.19806671,-1.4289546
-15.58495998,8.2480669,-1.47895455
-15.48496056,7.898067,-1.47895455
-15.43496037,7.94806719,-1.47895455
-15.38496017,7.898067,-1.47895455
-15.38496017,8.04806709,-1.4289546
-15.33495998,8.04806709,-1.4289546
-15.43496037,8.19806671,-1.47895455
-15.33495998,8.09806728,-1.57895458
-15.38496017,8.09806728,-1.47895455
-15.38496017,8.2480669,-1.57895458
-15.38496017,8.2480669,-1.37895465
-15.53496075,8.34806728,-1.6789546
-15.58495998,8.44806671,-1.72895455
-15.48496056,8.29806709,-1.6789546
-15.43496037,8.44806671,-1.6789546
-15.38496017,8.29806709,-1.6789546
-15.38496017,8.39806747,-1.6789546
-15.33495998,8.39806747,-1.62895465
-15.38496017,8.54806709,-1.6789546
-15.63496017,8.34806728,-1.47895455
-15.58495998,8.29806709,-1.4289546
-15.48496056,8.44806671,-1.57895458
-15.38496017,8.44806671,-1.52895463
-15.23496056,8.14806747,-1.62895465
-15.13496017,8.2480669,-1.62895465
-15.28496075,7.99806738,-1.4289546
-15.23496056,7.99806738,-1.22895455
-15.23496056,8.09806728,-1.57895458
-15.13496017,8.09806728,-1.57895458
-15.13496017,8.19806671,-1.57895458
-15.13496017,8.09806728,-1.37895465
-15.03496075,7.898067,-1.57895458
-15.08495998,7.99806738,-1.57895458
-15.03496075,7.99806738,-1.57895458
-14.93496037,8.04806709,-1.57895458
-15.03496075,8.09806728,-1.52895463
-14.98496056,8.14806747,-1.57895458
-14.93496037,8.09806728,-1.52895463
-15.28496075,8.29806709,-1.52895463
-15.28496075,8.34806728,-1.52895463
-15.23496056,8.39806747,-1.52895463
-15.23496056,8.44806671,-1.52895463
-15.03496075,8.29806709,-1.57895458
-15.03496075,7.99806738,-0.57895458
-15.63496017,8.84806728,-1.52895463
-15.68496037,8.94806671,-1.47895455
-15.53496075,9.29806709,-0.82895458
-15.68496037,9.34806728,-0.77895463
-15.68496037,9.44806671,-0.72895461
-14.83495998,7.898067,-1.57895458
-14.83495998,7.94806719,-1.52895463
-14.83495998,8.04806709,-1.52895463
-14.73496056,7.94806719,-1.52895463
-14.88496017,8.09806728,-1.52895463
-14.83495998,8.14806747,-1.47895455
-14.78496075,8.09806728,-1.52895463
-14.68496037,7.94806719,-1.52895463
-14.58495998,7.898067,-1.52895463
-14.53496075,7.898067,-1.52895463
-14.43496037,7.898067,-1.52895463
-14.38496017,7.898067,-1.47895455
-14.88496017,7.94806719,-0.57895458
-14.83495998,7.99806738,-0.4289546
-14.63496017,8.04806709,-0.57895458
-14.98496056,7.898067,0.27104539
-14.93496037,8.09806728,0.3210454
-14.98496056,8.44806671,0.37104541
-14.93496037,8.39806747,0.3210454
-14.93496037,8.44806671,0.37104541
-14.93496037,8.4980669,0.37104541
-15.33495998,7.94806719,0.52104539
-15.33495998,7.94806719,0.72104537
-15.33495998,8.09806728,0.67104542
-15.43496037,7.94806719,0.97104537
-15.33495998,7.898067,0.97104537
-15.33495998,7.94806719,0.92104542
-15.13496017,7.99806738,0.4710454
-15.23496056,7.898067,0.72104537
-15.13496017,7.94806719,0.72104537
-15.18496037,8.09806728,0.67104542
-15.13496017,8.19806671,0.62104541
-14.98496056,7.94806719,0.5710454
-15.03496075,7.94806719,0.77104539
-15.08495998,8.04806709,0.62104541
-15.03496075,8.04806709,0.62104541
-14.98496056,7.898067,0.72104537
-14.93496037,7.94806719,0.77104539
-14.93496037,8.09806728,0.5710454
-14.98496056,8.19806671,0.4710454
-14.93496037,8.2480669,0.5710454
-15.03496075,8.14806747,0.77104539
-15.03496075,8.19806671,0.77104539
-15.28496075,8.04806709,0.8210454
-15.28496075,8.04806709,0.92104542
-15.08495998,8.04806709,0.87104541
-15.03496075,7.898067,1.02104545
-15.03496075,7.94806719,1.02104545
-15.03496075,7.94806719,1.17104542
-15.03496075,8.14806747,0.87104541
-15.08495998,8.2480669,0.8210454
-14.93496037,8.2480669,0.92104542
-15.08495998,8.19806671,1.0710454
-15.03496075,8.29806709,0.77104539
-15.08495998,8.39806747,0.77104539
-15.08495998,8.44806671,0.72104537
-15.08495998,8.4980669,0.62104541
-15.18496037,8.39806747,0.87104541
-15.08495998,8.29806709,0.8210454
-15.08495998,8.34806728,0.97104537
-15.03496075,8.34806728,0.92104542
-15.08495998,8.44806671,0.8210454
-15.03496075,8.39806747,0.8210454
-15.08495998,8.34806728,1.0710454
-14.93496037,8.29806709,1.02104545
-14.98496056,8.4980669,0.8210454
-14.83495998,7.898067,-0.32895461
-14.58495998,7.94806719,-0.37895459
-14.53496075,8.14806747,-0.32895461
-14.53496075,8.09806728,-0.2789546
-14.58495998,8.2480669,-0.32895461
-14.53496075,8.19806671,-0.32895461
-14.78496075,7.898067,0.37104541
-14.58495998,7.94806719,0.17104539
-14.53496075,7.94806719,0.27104539
-14.58495998,7.898067,0.3210454
-14.58495998,8.29806709,-0.2789546
-14.88496017,8.39806747,0.37104541
-14.48496056,7.94806719,-0.2789546
-14.43496037,8.04806709,-0.2289546
-14.33495998,8.04806709,-0.32895461
-14.43496037,7.94806719,-0.1289546
-14.38496017,7.898067,-0.0789546
-14.33495998,7.94806719,-0.0289546
-14.38496017,8.04806709,-0.1789546
-14.33495998,7.99806738,-0.1789546
-14.48496056,8.14806747,-0.32895461
-14.48496056,8.19806671,-0.2289546
-14.48496056,8.14806747,-0.1789546
-14.43496037,7.94806719,0.3210454
-14.48496056,8.04806709,0.27104539
-14.43496037,8.04806709,0.37104541
-14.33495998,7.94806719,0.3210454
-14.48496056,8.09806728,0.27104539
-14.43496037,8.14806747,0.2210454
-14.33495998,8.19806671,0.27104539
-14.28496075,7.99806738,0.2210454
-14.28496075,8.04806709,0.3210454
-14.23496056,7.99806738,0.37104541
-14.23496056,8.04806709,0.37104541
-14.13496017,7.898067,0.2210454
-14.18496037,8.09806728,0.17104539
-14.23496056,8.09806728,0.2210454
-14.28496075,8.14806747,0.37104541
-14.23496056,8.14806747,0.3210454
-14.18496037,8.14806747,0.2210454
-14.13496017,8.19806671,0.2210454
-14.18496037,8.19806671,0.37104541
-14.13496017,8.2480669,0.37104541
-14.33495998,8.29806709,0.27104539
-14.38496017,8.39806747,0.27104539
-14.23496056,8.44806671,0.37104541
-14.18496037,8.34806728,0.3210454
-14.13496017,8.39806747,0.3210454
-14.83495998,7.898067,0.42104539
-14.83495998,7.898067,0.5710454
-14.78496075,7.898067,0.5710454
-14.83495998,8.04806709,0.67104542
-14.73496056,7.99806738,0.67104542
-14.88496017,8.09806728,0.5710454
-14.83495998,8.2480669,0.52104539
-14.73496056,8.19806671,0.4710454
-14.78496075,8.2480669,0.52104539
-14.73496056,8.2480669,0.52104539
-14.78496075,8.19806671,0.62104541
-14.63496017,7.99806738,0.42104539
-14.53496075,7.898067,0.4710454
-14.53496075,7.94806719,0.4710454
-14.58495998,7.99806738,0.42104539
-14.58495998,8.04806709,0.42104539
-14.58495998,8.04806709,0.4710454
-14.68496037,8.04806709,0.67104542
-14.63496017,8.14806747,0.4710454
-14.63496017,8.19806671,0.4710454
-14.63496017,8.14806747,0.62104541
-14.88496017,7.94806719,0.8210454
-14.73496056,8.44806671,0.42104539
-14.63496017,8.4980669,0.42104539
-14.53496075,8.4980669,0.52104539
-14.88496017,8.34806728,0.87104541
-14.83495998,8.29806709,0.97104537
-14.88496017,8.29806709,1.02104545
-14.48496056,7.94806719,0.4710454
-14.43496037,7.898067,0.4710454
-14.48496056,8.04806709,0.42104539
-14.23496056,7.94806719,0.42104539
-14.23496056,7.94806719,0.5710454
-14.28496075,7.99806738,0.5710454
-14.23496056,7.99806738,0.5710454
-14.23496056,8.04806709,0.52104539
-14.13496017,8.04806709,0.4710454
-14.18496037,8.04806709,0.52104539
-14.23496056,8.09806728,0.52104539
-14.23496056,8.19806671,0.4710454
-14.18496037,8.09806728,0.52104539
-14.38496017,8.29806709,0.5710454
-14.38496017,8.44806671,0.52104539
-14.33495998,8.44806671,0.52104539
-14.48496056,8.4980669,0.4710454
-14.48496056,8.54806709,0.4710454
-14.38496017,8.4980669,0.42104539
-14.33495998,8.59806728,0.42104539
-14.33495998,8.59806728,0.4710454
-14.33495998,8.64806747,0.4710454
-14.28496075,8.29806709,0.52104539
-14.28496075,8.34806728,0.5710454
-14.23496056,8.44806671,0.42104539
-14.23496056,8.44806671,0.5710454
-14.18496037,8.44806671,0.42104539
-14.13496017,8.39806747,0.52104539
-14.13496017,8.34806728,0.62104541
-14.23496056,8.4980669,0.42104539
-14.28496075,8.54806709,0.5710454
-14.23496056,8.54806709,0.52104539
-14.28496075,8.59806728,0.5710454
-14.23496056,8.59806728,0.52104539
-14.18496037,8.4980669,0.52104539
-14.13496017,8.4980669,0.52104539
-14.28496075,8.69806671,0.42104539
-14.03496075,6.74806738,-1.27895463
-14.03496075,6.84806728,-1.32895458
-13.93496037,6.69806719,-1.32895458
-14.03496075,6.94806719,-1.27895463
-14.03496075,6.99806738,-1.27895463
-14.03496075,7.04806709,-1.27895463
-13.98496056,6.94806719,-1.27895463
-13.83495998,6.69806719,-1.27895463
-13.88496017,6.79806709,-1.27895463
-13.78496075,6.69806719,-1.27895463
-13.78496075,6.79806709,-1.27895463
-13.83495998,6.898067,-1.22895455
-13.88496017,6.99806738,-1.22895455
-13.83495998,7.04806709,-1.22895455
-13.63496017,6.29806709,-1.32895458
-13.63496017,6.34806728,-1.32895458
-13.68496037,6.44806719,-1.32895458
-13.63496017,6.398067,-1.32895458
-13.58495998,6.29806709,-1.32895458
-13.53496075,6.44806719,-1.27895463
-13.48496056,6.398067,-1.27895463
-13.33495998,6.49806738,-1.22895455
-13.68496037,6.79806709,-1.27895463
-13.63496017,6.84806728,-1.22895455
-13.58495998,6.79806709,-1.22895455
-13.68496037,6.94806719,-1.22895455
-13.68496037,6.99806738,-1.22895455
-13.53496075,6.99806738,-1.37895465
-13.48496056,6.79806709,-1.37895465
-13.43496037,6.79806709,-1.37895465
-13.33495998,6.74806738,-1.32895458
-13.38496017,6.79806709,-1.37895465
-13.48496056,6.99806738,-1.32895458
-13.38496017,6.99806738,-1.32895458
-13.33495998,6.99806738,-1.27895463
-13.93496037,6.54806709,-0.77895463
-14.03496075,6.69806719,-0.97895461
-14.08495998,6.74806738,-0.82895458
-13.98496056,6.79806709,-0.97895461
-13.98496056,6.898067,-1.12895465
-13.93496037,6.898067,-1.02895463
-13.93496037,7.04806709,-1.02895463
-14.03496075,6.898067,-0.82895458
-13.93496037,6.898067,-0.82895458
-13.88496017,6.74806738,-1.12895465
-13.88496017,6.84806728,-1.12895465
-13.83495998,6.84806728,-1.07895458
-13.73496056,6.69806719,-1.07895458
-13.73496056,6.79806709,-1.07895458
-13.73496056,6.84806728,-0.9289546
-13.83495998,6.898067,-1.02895463
-13.88496017,6.898067,-0.9289546
-13.83495998,6.898067,-0.82895458
-13.88496017,6.99806738,-0.9289546
-13.88496017,7.04806709,-0.82895458
-14.08495998,6.79806709,-0.77895463
-14.08495998,6.84806728,-0.77895463
-13.98496056,6.74806738,-0.77895463
-13.93496037,6.79806709,-0.62895459
-14.08495998,6.94806719,-0.77895463
-14.03496075,7.04806709,-0.62895459
-13.98496056,6.898067,-0.77895463
-13.98496056,7.04806709,-0.62895459
-13.93496037,7.04806709,-0.62895459
-14.08495998,6.94806719,-0.4289546
-14.08495998,7.04806709,-0.57895458
-14.03496075,6.99806738,-0.47895461
-14.03496075,6.99806738,-0.4289546
-13.98496056,6.94806719,-0.4289546
-13.93496037,6.898067,-0.4289546
-13.83495998,6.79806709,-0.77895463
-13.83495998,6.79806709,-0.62895459
-13.78496075,6.79806709,-0.77895463
-13.78496075,6.84806728,-0.77895463
-13.73496056,6.79806709,-0.77895463
-13.73496056,6.84806728,-0.4289546
-13.88496017,6.898067,-0.62895459
-13.88496017,6.94806719,-0.62895459
-13.83495998,6.898067,-0.62895459
-13.88496017,7.04806709,-0.62895459
-13.78496075,6.898067,-0.62895459
-13.88496017,6.94806719,-0.57895458
-13.83495998,6.99806738,-0.57895458
-13.83495998,7.04806709,-0.47895461
-13.78496075,6.898067,-0.4289546
-13.78496075,7.04806709,-0.47895461
-13.73496056,6.99806738,-0.47895461
-13.53496075,6.648067,-1.07895458
-13.63496017,6.648067,-0.9289546
-13.33495998,6.34806728,-0.82895458
-13.58495998,6.34806728,-0.6789546
-13.58495998,6.398067,-0.47895461
-13.43496037,6.398067,-0.47895461
-13.68496037,6.79806709,-1.07895458
-13.68496037,6.69806719,-0.9289546
-13.68496037,6.79806709,-0.9289546
-13.63496017,7.04806709,-1.1789546
-13.63496017,6.898067,-0.9289546
-13.68496037,6.99806738,-0.97895461
-13.68496037,7.04806709,-0.97895461
-13.38496017,6.94806719,-1.1789546
-13.33495998,6.898067,-1.1789546
-13.68496037,6.84806728,-0.6789546
-13.33495998,6.74806738,-0.47895461
-13.38496017,6.84806728,-0.47895461
-13.43496037,6.898067,-0.47895461
-13.48496056,6.99806738,-0.57895458
-13.43496037,6.99806738,-0.57895458
-14.03496075,7.148067,-1.27895463
