x,y,z
-12.08495998,9.94806671,-1.82895458
-12.08495998,10.04806709,-1.82895458
-12.03496075,9.9980669,-1.82895458
-11.98496056,9.89806747,-1.82895458
-11.93496037,9.94806671,-1.82895458
-11.98496056,9.9980669,-1.82895458
-12.08495998,10.2480669,-1.82895458
-12.03496075,10.2480669,-1.82895458
-11.98496056,10.09806728,-1.82895458
-11.93496037,10.14806747,-1.82895458
-11.88496017,9.9980669,-1.82895458
-11.83495998,9.9980669,-1.82895458
-11.78496075,10.04806709,-1.82895458
-11.73496056,10.04806709,-1.82895458
-11.88496017,10.14806747,-1.82895458
-11.83495998,10.19806671,-1.82895458
-11.78496075,10.19806671,-1.82895458
-11.73496056,10.2480669,-1.82895458
-12.43496037,10.29806709,-1.82895458
-12.33495998,10.29806709,-1.82895458
-12.38496017,10.39806747,-1.82895458
-12.33495998,10.44806671,-1.82895458
-12.43496037,10.44806671,-1.77895463
-12.33495998,10.29806709,-1.77895463
-12.38496017,10.54806709,-1.82895458
-12.28496075,10.34806728,-1.82895458
-12.13496017,10.34806728,-1.87895465
-12.18496037,10.39806747,-1.82895458
-12.18496037,10.44806671,-1.82895458
-12.13496017,10.44806671,-1.82895458
-12.28496075,10.54806709,-1.82895458
-12.28496075,10.59806728,-1.82895458
-12.23496056,10.64806747,-1.82895458
-12.18496037,10.59806728,-1.82895458
-12.48496056,10.79806709,-1.87895465
-12.43496037,10.79806709,-1.77895463
-12.38496017,10.84806728,-1.77895463
-12.43496037,10.89806747,-1.87895465
-12.33495998,10.94806671,-1.87895465
-12.13496017,10.69806671,-1.82895458
-12.28496075,10.9980669,-1.87895465
-12.18496037,10.9980669,-1.82895458
-12.18496037,11.04806709,-1.87895465
-12.28496075,10.89806747,-1.77895463
-12.18496037,10.94806671,-1.77895463
-12.03496075,10.29806709,-1.82895458
-12.08495998,10.44806671,-1.87895465
-11.98496056,10.29806709,-1.82895458
-11.93496037,10.34806728,-1.82895458
-12.08495998,10.4980669,-1.82895458
-12.03496075,10.4980669,-1.82895458
-11.98496056,10.4980669,-1.87895465
-11.93496037,10.54806709,-1.87895465
-11.93496037,10.54806709,-1.82895458
-11.88496017,10.34806728,-1.82895458
-11.83495998,10.39806747,-1.82895458
-11.73496056,10.39806747,-1.82895458
-11.88496017,10.59806728,-1.87895465
-11.83495998,10.59806728,-1.87895465
-11.83495998,10.59806728,-1.82895458
-11.73496056,10.59806728,-1.82895458
-11.83495998,10.54806709,-1.32895458
-11.83495998,10.54806709,-1.22895455
-11.83495998,10.59806728,-1.32895458
-11.83495998,10.59806728,-1.27895463
-12.08495998,10.7480669,-1.82895458
-12.03496075,10.7480669,-1.82895458
-11.98496056,10.79806709,-1.82895458
-11.93496037,10.79806709,-1.82895458
-12.08495998,10.9980669,-1.82895458
-11.98496056,11.04806709,-1.82895458
-11.93496037,11.04806709,-1.82895458
-11.83495998,10.79806709,-1.82895458
-11.78496075,10.69806671,-1.87895465
-11.78496075,10.84806728,-1.82895458
-11.88496017,10.89806747,-1.82895458
-11.78496075,10.94806671,-1.82895458
-11.73496056,10.9980669,-1.82895458
-11.93496037,10.34806728,-0.9289546
-11.88496017,10.44806671,-1.02895463
-11.88496017,10.39806747,-0.97895461
-11.83495998,10.44806671,-0.9289546
-11.83495998,10.4980669,-1.1789546
-11.83495998,10.54806709,-1.1789546
-11.83495998,10.4980669,-1.07895458
-11.83495998,10.59806728,-1.1789546
-11.83495998,10.59806728,-1.07895458
-11.83495998,10.4980669,-0.97895461
-11.78496075,10.54806709,-0.97895461
-11.68496037,9.4980669,-1.77895463
-11.68496037,9.54806709,-1.77895463
-11.63496017,9.59806728,-1.77895463
-11.58495998,9.64806747,-1.77895463
-11.68496037,9.79806709,-1.82895458
-11.63496017,9.84806728,-1.82895458
-11.48496056,9.69806671,-1.77895463
-11.43496037,9.7480669,-1.77895463
-11.38496017,9.7480669,-1.77895463
-11.38496017,9.79806709,-1.77895463
-11.33495998,9.79806709,-1.77895463
-11.53496075,9.89806747,-1.82895458
-11.68496037,10.2480669,-1.82895458
-11.63496017,10.09806728,-1.77895463
-11.58495998,10.09806728,-1.77895463
-11.58495998,10.2480669,-1.77895463
-11.48496056,9.94806671,-1.82895458
-11.38496017,9.94806671,-1.82895458
-11.33495998,9.9980669,-1.82895458
-11.48496056,10.09806728,-1.77895463
-11.38496017,10.14806747,-1.77895463
-11.33495998,10.14806747,-1.77895463
-11.28496075,9.84806728,-1.77895463
-11.23496056,9.84806728,-1.77895463
-10.93496037,9.4980669,-1.72895455
-11.28496075,10.04806709,-1.82895458
-11.13496017,9.89806747,-1.77895463
-11.18496037,10.09806728,-1.82895458
-11.13496017,10.09806728,-1.82895458
-11.08495998,9.89806747,-1.72895455
-11.03496075,9.94806671,-1.72895455
-10.93496037,9.9980669,-1.72895455
-11.03496075,10.14806747,-1.82895458
-10.98496056,10.14806747,-1.77895463
-11.63496017,10.29806709,-1.82895458
-11.68496037,10.39806747,-1.82895458
-11.63496017,10.44806671,-1.82895458
-11.53496075,10.29806709,-1.82895458
-11.53496075,10.34806728,-1.82895458
-11.58495998,10.44806671,-1.82895458
-11.53496075,10.44806671,-1.82895458
-11.68496037,10.59806728,-1.82895458
-11.63496017,10.64806747,-1.82895458
-11.48496056,10.39806747,-1.82895458
-11.38496017,10.44806671,-1.82895458
-11.48496056,10.29806709,-1.77895463
-11.48496056,10.44806671,-1.77895463
-11.43496037,10.44806671,-1.77895463
-11.38496017,10.29806709,-1.77895463
-11.33495998,10.44806671,-1.77895463
-11.48496056,10.64806747,-1.82895458
-11.68496037,10.7480669,-1.87895465
-11.63496017,10.84806728,-1.87895465
-11.53496075,10.69806671,-1.82895458
-11.63496017,10.94806671,-1.9289546
-11.68496037,10.89806747,-1.82895458
-11.63496017,10.89806747,-1.82895458
-11.63496017,11.04806709,-1.9289546
-11.68496037,11.04806709,-1.87895465
-11.58495998,10.94806671,-1.82895458
-11.43496037,10.69806671,-1.82895458
-11.38496017,10.69806671,-1.82895458
-11.33495998,10.69806671,-1.82895458
-11.48496056,10.94806671,-1.82895458
-11.43496037,10.94806671,-1.82895458
-11.48496056,11.04806709,-1.82895458
-11.38496017,10.89806747,-1.87895465
-11.38496017,10.94806671,-1.87895465
-11.33495998,10.94806671,-1.82895458
-11.28496075,10.29806709,-1.77895463
-11.23496056,10.29806709,-1.77895463
-11.18496037,10.29806709,-1.77895463
-11.13496017,10.44806671,-1.77895463
-11.28496075,10.4980669,-1.82895458
-11.18496037,10.54806709,-1.82895458
-11.28496075,10.4980669,-1.77895463
-11.18496037,10.4980669,-1.77895463
-11.08495998,10.29806709,-1.82895458
-11.08495998,10.44806671,-1.77895463
-10.98496056,10.44806671,-1.77895463
-11.08495998,10.59806728,-1.82895458
-11.03496075,10.59806728,-1.82895458
-11.03496075,10.64806747,-1.82895458
-10.98496056,10.64806747,-1.82895458
-11.28496075,10.69806671,-1.82895458
-11.23496056,10.69806671,-1.82895458
-11.18496037,10.69806671,-1.82895458
-11.13496017,10.69806671,-1.82895458
-11.23496056,10.94806671,-1.82895458
-11.23496056,10.9980669,-1.87895465
-11.18496037,10.9980669,-1.87895465
-11.13496017,10.9980669,-1.87895465
-11.08495998,10.69806671,-1.82895458
-10.98496056,10.69806671,-1.82895458
-10.93496037,10.69806671,-1.82895458
-11.03496075,11.04806709,-1.87895465
-10.93496037,11.04806709,-1.9289546
-12.43496037,11.14806747,-1.77895463
-12.43496037,11.19806671,-1.77895463
-12.38496017,11.14806747,-1.77895463
-12.33495998,11.14806747,-1.77895463
-12.38496017,11.2480669,-1.77895463
-12.48496056,11.39806747,-1.72895455
-12.38496017,11.39806747,-1.72895455
-12.23496056,11.09806728,-1.97895455
-12.13496017,11.14806747,-1.97895455
-12.13496017,11.09806728,-1.87895465
-12.23496056,11.19806671,-1.77895463
-12.13496017,11.2480669,-1.77895463
-12.28496075,11.29806709,-1.77895463
-12.18496037,11.34806728,-1.77895463
-12.13496017,11.39806747,-1.77895463
-12.48496056,11.4980669,-1.82895458
-12.38496017,11.54806709,-1.82895458
-12.33495998,11.59806728,-1.82895458
-12.48496056,11.7480669,-1.6789546
-12.43496037,11.79806709,-1.6789546
-12.38496017,11.7480669,-1.6789546
-12.33495998,11.7480669,-1.6789546
-12.38496017,11.79806709,-1.6789546
-12.38496017,11.84806728,-1.6789546
-12.28496075,11.59806728,-1.82895458
-12.18496037,11.64806747,-1.82895458
-12.28496075,11.4980669,-1.72895455
-12.18496037,11.4980669,-1.72895455
-12.13496017,11.54806709,-1.72895455
-12.13496017,11.54806709,-1.6789546
-12.13496017,11.69806671,-1.82895458
-12.23496056,11.69806671,-1.62895465
-12.23496056,11.7480669,-1.6789546
-12.23496056,11.79806709,-1.6789546
-12.13496017,11.69806671,-1.77895463
-12.18496037,11.7480669,-1.6789546
-12.13496017,11.69806671,-1.6789546
-12.13496017,11.79806709,-1.6789546
-12.13496017,11.84806728,-1.62895465
-12.08495998,11.14806747,-1.87895465
-12.08495998,11.19806671,-1.97895455
-12.03496075,11.19806671,-1.87895465
-12.03496075,11.29806709,-1.97895455
-11.98496056,11.29806709,-1.87895465
-12.03496075,11.29806709,-1.77895463
-12.08495998,11.44806671,-1.77895463
-11.98496056,11.29806709,-1.77895463
-11.93496037,11.34806728,-1.77895463
-11.98496056,11.39806747,-1.72895455
-11.88496017,11.09806728,-1.82895458
-11.83495998,11.14806747,-1.82895458
-11.73496056,11.14806747,-1.82895458
-11.78496075,11.2480669,-1.87895465
-11.88496017,11.34806728,-1.87895465
-11.88496017,11.39806747,-1.82895458
-11.83495998,11.44806671,-1.87895465
-11.78496075,11.39806747,-1.82895458
-11.73496056,11.39806747,-1.82895458
-11.88496017,11.34806728,-1.77895463
-11.83495998,11.34806728,-1.77895463
-11.88496017,11.39806747,-1.77895463
-11.78496075,11.34806728,-1.77895463
-11.78496075,11.39806747,-1.72895455
-11.78496075,11.44806671,-1.72895455
-12.08495998,11.4980669,-1.77895463
-12.08495998,11.54806709,-1.72895455
-12.03496075,11.4980669,-1.77895463
-12.03496075,11.54806709,-1.72895455
-12.03496075,11.64806747,-1.6789546
-11.98496056,11.54806709,-1.77895463
-11.98496056,11.54806709,-1.72895455
-11.93496037,11.54806709,-1.72895455
-11.93496037,11.59806728,-1.77895463
-11.98496056,11.64806747,-1.6789546
-12.03496075,11.7480669,-1.77895463
-12.08495998,11.79806709,-1.62895465
-12.08495998,11.84806728,-1.6789546
-12.03496075,11.79806709,-1.62895465
-11.93496037,11.7480669,-1.77895463
-11.98496056,11.79806709,-1.62895465
-11.93496037,11.79806709,-1.62895465
-11.93496037,11.84806728,-1.6789546
-11.73496056,11.4980669,-1.87895465
-11.88496017,11.4980669,-1.72895455
-11.83495998,11.4980669,-1.72895455
-11.88496017,11.59806728,-1.72895455
-11.88496017,11.64806747,-1.77895463
-11.88496017,11.59806728,-1.6789546
-11.78496075,11.59806728,-1.77895463
-11.78496075,11.59806728,-1.72895455
-11.78496075,11.64806747,-1.77895463
-11.78496075,11.64806747,-1.72895455
-11.73496056,11.59806728,-1.77895463
-11.88496017,11.79806709,-1.77895463
-11.88496017,11.79806709,-1.6789546
-11.78496075,11.69806671,-1.6789546
-11.73496056,11.69806671,-1.6789546
-11.78496075,11.84806728,-1.77895463
-12.48496056,11.89806747,-1.6789546
-12.48496056,11.94806671,-1.6789546
-12.48496056,11.94806671,-1.62895465
-12.43496037,11.89806747,-1.62895465
-12.43496037,12.04806709,-1.72895455
-12.43496037,11.9980669,-1.6789546
-12.38496017,11.89806747,-1.62895465
-12.38496017,11.94806671,-1.6789546
-12.33495998,11.89806747,-1.62895465
-12.33495998,11.94806671,-1.6789546
-12.48496056,12.14806747,-1.62895465
-12.43496037,12.09806728,-1.62895465
-12.38496017,12.09806728,-1.72895455
-12.38496017,12.09806728,-1.62895465
-12.38496017,12.14806747,-1.62895465
-12.33495998,12.19806671,-1.72895455
-12.28496075,11.89806747,-1.62895465
-12.23496056,11.89806747,-1.62895465
-12.23496056,11.94806671,-1.6789546
-12.28496075,11.9980669,-1.6789546
-12.28496075,12.04806709,-1.6789546
-12.18496037,11.89806747,-1.6789546
-12.18496037,11.94806671,-1.62895465
-12.13496017,11.94806671,-1.62895465
-12.18496037,12.04806709,-1.6789546
-12.18496037,12.04806709,-1.62895465
-12.28496075,12.2480669,-1.72895455
-12.28496075,12.19806671,-1.62895465
-12.13496017,12.09806728,-1.6789546
-12.13496017,12.19806671,-1.6789546
-12.33495998,12.04806709,-1.57895458
-12.43496037,12.14806747,-1.57895458
-12.38496017,12.09806728,-1.52895463
-12.33495998,12.09806728,-1.4289546
-12.33495998,12.19806671,-1.57895458
-12.38496017,12.19806671,-1.4289546
-12.43496037,12.19806671,-1.37895465
-12.28496075,12.04806709,-1.57895458
-12.23496056,12.04806709,-1.57895458
-12.18496037,11.89806747,-1.4289546
-12.13496017,11.94806671,-1.47895455
-12.13496017,12.04806709,-1.52895463
-12.28496075,11.94806671,-1.37895465
-12.28496075,12.14806747,-1.57895458
-12.23496056,12.14806747,-1.57895458
-12.23496056,12.09806728,-1.47895455
-12.28496075,12.2480669,-1.57895458
-12.28496075,12.2480669,-1.4289546
-12.18496037,12.14806747,-1.52895463
-12.13496017,12.14806747,-1.57895458
-12.18496037,12.09806728,-1.47895455
-12.13496017,12.19806671,-1.57895458
-12.18496037,12.2480669,-1.4289546
-12.48496056,12.44806671,-1.62895465
-12.43496037,12.44806671,-1.62895465
-12.38496017,12.39806747,-1.62895465
-12.33495998,12.54806709,-1.6789546
-12.23496056,12.34806728,-1.62895465
-12.28496075,12.39806747,-1.72895455
-12.23496056,12.44806671,-1.72895455
-12.28496075,12.44806671,-1.62895465
-12.13496017,12.29806709,-1.62895465
-12.13496017,12.54806709,-1.62895465
-12.18496037,12.64806747,-1.77895463
-12.48496056,12.34806728,-1.57895458
-12.48496056,12.29806709,-1.47895455
-12.48496056,12.34806728,-1.47895455
-12.48496056,12.39806747,-1.57895458
-12.48496056,12.39806747,-1.52895463
-12.43496037,12.39806747,-1.47895455
-12.38496017,12.29806709,-1.52895463
-12.33495998,12.34806728,-1.57895458
-12.38496017,12.29806709,-1.4289546
-12.38496017,12.44806671,-1.57895458
-12.38496017,12.44806671,-1.52895463
-12.33495998,12.44806671,-1.52895463
-12.33495998,12.4980669,-1.52895463
-12.38496017,12.4980669,-1.4289546
-12.38496017,12.64806747,-1.52895463
-12.33495998,12.64806747,-1.52895463
-12.33495998,12.59806728,-1.4289546
-12.33495998,12.64806747,-1.32895458
-12.28496075,12.29806709,-1.57895458
-12.28496075,12.34806728,-1.57895458
-12.23496056,12.34806728,-1.52895463
-12.28496075,12.29806709,-1.47895455
-12.23496056,12.34806728,-1.4289546
-12.28496075,12.44806671,-1.52895463
-12.23496056,12.44806671,-1.52895463
-12.23496056,12.44806671,-1.47895455
-12.23496056,12.44806671,-1.4289546
-12.18496037,12.29806709,-1.57895458
-12.13496017,12.29806709,-1.52895463
-12.13496017,12.34806728,-1.47895455
-12.13496017,12.44806671,-1.57895458
-12.13496017,12.39806747,-1.47895455
-12.13496017,12.44806671,-1.4289546
-12.28496075,12.44806671,-1.27895463
-12.13496017,12.44806671,-1.27895463
-12.23496056,12.4980669,-1.52895463
-12.28496075,12.4980669,-1.4289546
-12.23496056,12.54806709,-1.47895455
-12.23496056,12.59806728,-1.57895458
-12.18496037,12.4980669,-1.57895458
-12.18496037,12.54806709,-1.57895458
-12.13496017,12.4980669,-1.57895458
-12.13496017,12.4980669,-1.52895463
-12.13496017,12.54806709,-1.52895463
-12.18496037,12.4980669,-1.47895455
-12.18496037,12.54806709,-1.47895455
-12.13496017,12.4980669,-1.4289546
-12.13496017,12.54806709,-1.47895455
-12.13496017,12.54806709,-1.4289546
-12.18496037,12.59806728,-1.57895458
-12.13496017,12.59806728,-1.47895455
-12.28496075,12.54806709,-1.37895465
-12.23496056,12.54806709,-1.32895458
-12.23496056,12.4980669,-1.27895463
-12.23496056,12.54806709,-1.22895455
-12.23496056,12.59806728,-1.37895465
-12.23496056,12.64806747,-1.32895458
-12.18496037,12.4980669,-1.32895458
-12.18496037,12.54806709,-1.27895463
-12.13496017,12.4980669,-1.27895463
-12.18496037,12.59806728,-1.37895465
-12.13496017,12.64806747,-1.37895465
-12.13496017,12.64806747,-1.32895458
-12.13496017,12.64806747,-1.22895455
-12.03496075,11.89806747,-1.6789546
-12.08495998,11.9980669,-1.62895465
-12.03496075,12.04806709,-1.62895465
-11.98496056,11.89806747,-1.6789546
-11.93496037,11.94806671,-1.62895465
-12.08495998,12.14806747,-1.6789546
-12.08495998,12.2480669,-1.6789546
-11.93496037,12.09806728,-1.62895465
-11.98496056,12.19806671,-1.6789546
-11.83495998,11.89806747,-1.6789546
-11.83495998,11.89806747,-1.62895465
-11.83495998,11.9980669,-1.6789546
-11.78496075,11.89806747,-1.6789546
-11.73496056,11.89806747,-1.6789546
-11.73496056,11.94806671,-1.6789546
-11.78496075,11.9980669,-1.6789546
-11.73496056,12.04806709,-1.6789546
-11.88496017,12.14806747,-1.62895465
-11.88496017,12.19806671,-1.6789546
-11.83495998,12.2480669,-1.6789546
-11.78496075,12.19806671,-1.6789546
-11.73496056,12.2480669,-1.6789546
-12.08495998,11.9980669,-1.57895458
-12.08495998,12.04806709,-1.52895463
-11.98496056,11.89806747,-1.57895458
-11.93496037,11.94806671,-1.47895455
-11.93496037,12.04806709,-1.52895463
-12.08495998,12.09806728,-1.57895458
-12.08495998,12.09806728,-1.52895463
-12.03496075,12.09806728,-1.52895463
-12.08495998,12.14806747,-1.47895455
-12.08495998,12.19806671,-1.57895458
-12.03496075,12.19806671,-1.57895458
-12.08495998,12.19806671,-1.47895455
-12.08495998,12.2480669,-1.47895455
-12.03496075,12.19806671,-1.47895455
-11.98496056,12.09806728,-1.52895463
-11.93496037,12.14806747,-1.57895458
-11.98496056,12.14806747,-1.47895455
-11.98496056,12.2480669,-1.47895455
-11.93496037,12.19806671,-1.47895455
-12.03496075,12.14806747,-1.37895465
-11.83495998,11.9980669,-1.52895463
-11.78496075,12.04806709,-1.57895458
-11.88496017,12.14806747,-1.52895463
-11.88496017,12.19806671,-1.57895458
-11.88496017,12.2480669,-1.52895463
-11.88496017,12.2480669,-1.4289546
-11.83495998,12.19806671,-1.47895455
-11.78496075,12.09806728,-1.47895455
-11.88496017,12.19806671,-1.27895463
-11.73496056,12.2480669,-1.22895455
-12.03496075,12.29806709,-1.6789546
-11.93496037,12.29806709,-1.6789546
-11.93496037,12.29806709,-1.62895465
-11.98496056,12.39806747,-1.6789546
-11.93496037,12.4980669,-1.72895455
-11.93496037,12.4980669,-1.6789546
-11.88496017,12.29806709,-1.6789546
-11.78496075,12.29806709,-1.62895465
-11.73496056,12.34806728,-1.6789546
-11.78496075,12.39806747,-1.62895465
-11.88496017,12.54806709,-1.72895455
-11.88496017,12.4980669,-1.6789546
-12.08495998,12.34806728,-1.47895455
-12.08495998,12.39806747,-1.47895455
-12.08495998,12.44806671,-1.47895455
-12.03496075,12.44806671,-1.4289546
-11.98496056,12.29806709,-1.52895463
-11.98496056,12.34806728,-1.52895463
-11.93496037,12.34806728,-1.4289546
-11.98496056,12.39806747,-1.52895463
-11.98496056,12.39806747,-1.4289546
-11.98496056,12.44806671,-1.4289546
-11.93496037,12.44806671,-1.4289546
-12.03496075,12.34806728,-1.37895465
-12.03496075,12.34806728,-1.27895463
-12.08495998,12.44806671,-1.27895463
-12.03496075,12.39806747,-1.27895463
-11.98496056,12.34806728,-1.37895465
-11.93496037,12.29806709,-1.27895463
-11.93496037,12.39806747,-1.32895458
-12.08495998,12.4980669,-1.47895455
-12.03496075,12.4980669,-1.47895455
-12.03496075,12.59806728,-1.52895463
-12.08495998,12.59806728,-1.4289546
-11.98496056,12.54806709,-1.4289546
-11.98496056,12.64806747,-1.57895458
-11.98496056,12.64806747,-1.52895463
-11.98496056,12.59806728,-1.47895455
-11.93496037,12.59806728,-1.4289546
-12.08495998,12.54806709,-1.37895465
-12.03496075,12.4980669,-1.32895458
-12.03496075,12.54806709,-1.32895458
-12.08495998,12.4980669,-1.27895463
-12.08495998,12.54806709,-1.27895463
-12.08495998,12.64806747,-1.37895465
-12.03496075,12.59806728,-1.32895458
-12.03496075,12.59806728,-1.27895463
-12.03496075,12.64806747,-1.22895455
-11.98496056,12.54806709,-1.32895458
-11.98496056,12.54806709,-1.27895463
-11.93496037,12.54806709,-1.27895463
-11.98496056,12.59806728,-1.32895458
-11.93496037,12.59806728,-1.22895455
-11.83495998,12.34806728,-1.52895463
-11.88496017,12.29806709,-1.4289546
-11.88496017,12.34806728,-1.4289546
-11.88496017,12.39806747,-1.52895463
-11.83495998,12.44806671,-1.57895458
-11.88496017,12.44806671,-1.47895455
-11.88496017,12.44806671,-1.4289546
-11.83495998,12.39806747,-1.4289546
-11.78496075,12.39806747,-1.57895458
-11.88496017,12.34806728,-1.32895458
-11.88496017,12.44806671,-1.32895458
-11.83495998,12.44806671,-1.22895455
-11.78496075,12.29806709,-1.32895458
-11.78496075,12.39806747,-1.32895458
-11.88496017,12.4980669,-1.4289546
-11.88496017,12.4980669,-1.32895458
-11.88496017,12.54806709,-1.22895455
-12.28496075,12.2480669,-0.9289546
-12.43496037,12.29806709,-1.07895458
-12.38496017,12.44806671,-1.07895458
-12.33495998,12.44806671,-1.07895458
-12.23496056,12.39806747,-1.12895465
-12.28496075,12.44806671,-1.07895458
-12.13496017,12.29806709,-1.02895463
-12.18496037,12.39806747,-1.12895465
-12.18496037,12.44806671,-1.1789546
-12.28496075,12.39806747,-0.97895461
-12.13496017,12.44806671,-0.97895461
-12.28496075,12.64806747,-1.1789546
-12.18496037,12.59806728,-1.1789546
-12.18496037,12.59806728,-1.12895465
-12.13496017,12.59806728,-1.1789546
-11.93496037,12.2480669,-1.1789546
-11.93496037,12.2480669,-1.12895465
-12.03496075,12.09806728,-0.9289546
-11.78496075,12.09806728,-1.07895458
-11.73496056,12.14806747,-1.02895463
-11.78496075,12.2480669,-1.02895463
-11.88496017,12.14806747,-0.97895461
-12.03496075,12.34806728,-1.07895458
-11.93496037,12.29806709,-1.07895458
-11.93496037,12.34806728,-1.02895463
-11.93496037,12.39806747,-1.1789546
-11.93496037,12.44806671,-1.1789546
-11.93496037,12.44806671,-1.12895465
-12.03496075,12.39806747,-0.9289546
-11.93496037,12.29806709,-0.9289546
-12.03496075,12.59806728,-1.1789546
-12.08495998,12.64806747,-1.07895458
-12.03496075,12.59806728,-1.07895458
-12.03496075,12.64806747,-1.07895458
-11.98496056,12.54806709,-1.1789546
-11.93496037,12.54806709,-1.1789546
-11.93496037,12.4980669,-1.07895458
-11.93496037,12.59806728,-1.07895458
-12.08495998,12.64806747,-0.9289546
-12.03496075,12.59806728,-0.9289546
-11.93496037,12.4980669,-0.97895461
-11.88496017,12.29806709,-1.02895463
-11.83495998,12.29806709,-1.02895463
-11.83495998,12.34806728,-1.07895458
-11.88496017,12.39806747,-1.1789546
-11.83495998,12.44806671,-1.12895465
-11.83495998,12.39806747,-1.02895463
-11.73496056,12.29806709,-1.12895465
-11.73496056,12.29806709,-1.02895463
-11.88496017,12.29806709,-0.9289546
-11.83495998,12.44806671,-0.9289546
-11.78496075,12.34806728,-0.97895461
-11.73496056,12.29806709,-0.9289546
-11.78496075,12.39806747,-0.9289546
-11.88496017,12.4980669,-1.07895458
-11.88496017,12.4980669,-0.97895461
-11.88496017,12.54806709,-0.97895461
-11.68496037,11.19806671,-1.87895465
-11.63496017,11.19806671,-1.82895458
-11.58495998,11.09806728,-1.9289546
-11.53496075,11.14806747,-1.9289546
-11.58495998,11.14806747,-1.87895465
-11.53496075,11.14806747,-1.82895458
-11.53496075,11.19806671,-1.87895465
-11.53496075,11.19806671,-1.82895458
-11.53496075,11.2480669,-1.87895465
-11.63496017,11.34806728,-1.97895455
-11.68496037,11.29806709,-1.82895458
-11.63496017,11.44806671,-1.82895458
-11.58495998,11.39806747,-1.82895458
-11.68496037,11.39806747,-1.77895463
-11.68496037,11.44806671,-1.77895463
-11.58495998,11.39806747,-1.77895463
-11.48496056,11.19806671,-1.9289546
-11.43496037,11.2480669,-1.87895465
-11.43496037,11.2480669,-1.82895458
-11.33495998,11.19806671,-1.87895465
-11.43496037,11.29806709,-1.9289546
-11.43496037,11.34806728,-1.97895455
-11.48496056,11.29806709,-1.82895458
-11.43496037,11.29806709,-1.87895465
-11.43496037,11.44806671,-1.97895455
-11.38496017,11.29806709,-1.87895465
-11.33495998,11.29806709,-1.87895465
-11.38496017,11.39806747,-1.9289546
-11.33495998,11.44806671,-1.9289546
-11.33495998,11.39806747,-1.82895458
-11.48496056,11.44806671,-1.77895463
-11.38496017,11.39806747,-1.77895463
-11.68496037,11.54806709,-1.87895465
-11.53496075,11.4980669,-1.82895458
-11.58495998,11.59806728,-1.87895465
-11.68496037,11.54806709,-1.72895455
-11.68496037,11.64806747,-1.77895463
-11.68496037,11.64806747,-1.72895455
-11.63496017,11.64806747,-1.77895463
-11.58495998,11.4980669,-1.72895455
-11.53496075,11.54806709,-1.72895455
-11.53496075,11.64806747,-1.72895455
-11.58495998,11.64806747,-1.6789546
-11.63496017,11.7480669,-1.77895463
-11.68496037,11.69806671,-1.6789546
-11.68496037,11.84806728,-1.77895463
-11.68496037,11.84806728,-1.62895465
-11.58495998,11.69806671,-1.72895455
-11.58495998,11.7480669,-1.77895463
-11.53496075,11.69806671,-1.77895463
-11.43496037,11.4980669,-1.97895455
-11.48496056,11.4980669,-1.82895458
-11.43496037,11.4980669,-1.82895458
-11.38496017,11.54806709,-1.97895455
-11.38496017,11.54806709,-1.82895458
-11.33495998,11.64806747,-1.97895455
-11.43496037,11.59806728,-1.72895455
-11.43496037,11.64806747,-1.62895465
-11.38496017,11.59806728,-1.72895455
-11.33495998,11.59806728,-1.77895463
-11.43496037,11.7480669,-1.9289546
-11.48496056,11.69806671,-1.87895465
-11.33495998,11.79806709,-1.9289546
-11.43496037,11.69806671,-1.72895455
-11.43496037,11.69806671,-1.6789546
-11.43496037,11.7480669,-1.6789546
-11.48496056,11.79806709,-1.77895463
-11.48496056,11.79806709,-1.6789546
-11.43496037,11.79806709,-1.6789546
-11.38496017,11.69806671,-1.72895455
-11.33495998,11.69806671,-1.72895455
-11.38496017,11.69806671,-1.6789546
-11.33495998,11.69806671,-1.6789546
-11.38496017,11.84806728,-1.77895463
-11.33495998,11.84806728,-1.62895465
-11.48496056,11.7480669,-1.57895458
-11.28496075,11.09806728,-1.87895465
-11.18496037,11.2480669,-1.82895458
-11.13496017,11.2480669,-1.87895465
-11.23496056,11.34806728,-1.9289546
-11.28496075,11.34806728,-1.82895458
-11.28496075,11.39806747,-1.9289546
-11.23496056,11.44806671,-1.9289546
-11.18496037,11.34806728,-1.9289546
-11.13496017,11.39806747,-1.9289546
-11.18496037,11.44806671,-1.82895458
-11.23496056,11.39806747,-1.77895463
-11.03496075,11.14806747,-1.9289546
-11.08495998,11.14806747,-1.87895465
-11.08495998,11.29806709,-1.9289546
-11.08495998,11.34806728,-1.9289546
-11.03496075,11.34806728,-1.9289546
-11.03496075,11.29806709,-1.87895465
-11.08495998,11.44806671,-1.82895458
-10.93496037,11.34806728,-1.9289546
-10.93496037,11.39806747,-1.9289546
-11.23496056,11.4980669,-1.9289546
-11.23496056,11.4980669,-1.82895458
-11.28496075,11.59806728,-1.87895465
-11.18496037,11.54806709,-1.9289546
-11.18496037,11.4980669,-1.82895458
-11.18496037,11.54806709,-1.82895458
-11.18496037,11.64806747,-1.97895455
-11.18496037,11.59806728,-1.87895465
-11.13496017,11.64806747,-1.87895465
-11.28496075,11.54806709,-1.77895463
-11.23496056,11.54806709,-1.6789546
-11.28496075,11.59806728,-1.77895463
-11.28496075,11.79806709,-1.9289546
-11.18496037,11.69806671,-1.9289546
-11.13496017,11.69806671,-1.97895455
-11.13496017,11.69806671,-1.9289546
-11.28496075,11.69806671,-1.72895455
-11.28496075,11.7480669,-1.77895463
-11.23496056,11.79806709,-1.77895463
-11.18496037,11.69806671,-1.72895455
-11.03496075,11.54806709,-1.9289546
-11.08495998,11.59806728,-1.87895465
-10.98496056,11.54806709,-1.9289546
-11.68496037,11.94806671,-1.6789546
-11.63496017,11.94806671,-1.6789546
-11.58495998,11.94806671,-1.77895463
-11.58495998,11.89806747,-1.6789546
-11.53496075,11.9980669,-1.77895463
-11.53496075,11.9980669,-1.6789546
-11.63496017,12.2480669,-1.6789546
-11.38496017,11.89806747,-1.9289546
-11.33495998,11.89806747,-1.82895458
-11.48496056,11.89806747,-1.6789546
-11.48496056,11.94806671,-1.6789546
-11.43496037,11.94806671,-1.6789546
-11.43496037,12.04806709,-1.6789546
-11.48496056,12.09806728,-1.77895463
-11.63496017,11.94806671,-1.22895455
-11.58495998,11.89806747,-1.32895458
-11.58495998,11.89806747,-1.22895455
-11.63496017,12.14806747,-1.57895458
-11.63496017,12.14806747,-1.52895463
-11.68496037,12.19806671,-1.57895458
-11.58495998,12.09806728,-1.37895465
-11.58495998,12.19806671,-1.37895465
-11.68496037,11.94806671,-1.12895465
-11.58495998,11.89806747,-1.12895465
-11.53496075,12.04806709,-0.9289546
-11.63496017,12.2480669,-1.1789546
-11.68496037,12.2480669,-1.07895458
-11.58495998,12.19806671,-1.07895458
-11.53496075,12.09806728,-0.9289546
-11.68496037,12.29806709,-1.12895465
-11.68496037,12.29806709,-1.02895463
-10.88496017,9.4980669,-1.6789546
-10.88496017,9.54806709,-1.6789546
-10.83495998,9.54806709,-1.6789546
-10.73496056,9.54806709,-1.6789546
-10.68496037,9.54806709,-1.6789546
-10.58495998,9.59806728,-1.6789546
-10.53496075,9.59806728,-1.6789546
-10.58495998,9.7480669,-1.62895465
-10.53496075,9.7480669,-1.62895465
-10.53496075,9.84806728,-1.62895465
-10.83495998,9.9980669,-1.72895455
-10.78496075,9.9980669,-1.72895455
-10.88496017,10.19806671,-1.77895463
-10.83495998,10.19806671,-1.77895463
-10.78496075,10.2480669,-1.77895463
-10.73496056,10.2480669,-1.77895463
-10.68496037,9.9980669,-1.72895455
-10.63496017,9.9980669,-1.6789546
-10.58495998,9.94806671,-1.6789546
-10.53496075,9.94806671,-1.6789546
-10.63496017,10.14806747,-1.77895463
-10.58495998,10.09806728,-1.72895455
-10.53496075,10.09806728,-1.72895455
-10.48496056,9.59806728,-1.62895465
-10.38496017,9.59806728,-1.62895465
-10.33495998,9.59806728,-1.62895465
-10.33495998,9.79806709,-1.62895465
-10.28496075,9.59806728,-1.62895465
-10.23496056,9.59806728,-1.62895465
-10.18496037,9.59806728,-1.62895465
-10.18496037,9.64806747,-1.6789546
-10.43496037,9.64806747,-1.57895458
-10.38496017,9.64806747,-1.57895458
-10.38496017,9.7480669,-1.57895458
-10.33495998,9.79806709,-1.57895458
-10.18496037,9.54806709,-1.57895458
-10.13496017,9.59806728,-1.57895458
-10.13496017,9.64806747,-1.57895458
-10.23496056,9.84806728,-1.57895458
-10.18496037,9.7480669,-1.57895458
-10.43496037,9.94806671,-1.6789546
-10.33495998,9.9980669,-1.6789546
-10.33495998,9.9980669,-1.62895465
-10.43496037,10.14806747,-1.72895455
-10.33495998,10.14806747,-1.72895455
-10.28496075,9.89806747,-1.62895465
-10.28496075,9.9980669,-1.62895465
-10.23496056,9.9980669,-1.62895465
-10.23496056,10.04806709,-1.62895465
-10.13496017,9.94806671,-1.62895465
-10.18496037,9.9980669,-1.62895465
-10.18496037,10.04806709,-1.6789546
-10.18496037,10.04806709,-1.62895465
-10.28496075,10.14806747,-1.62895465
-10.23496056,10.09806728,-1.6789546
-10.23496056,10.09806728,-1.62895465
-10.23496056,10.14806747,-1.62895465
-10.23496056,10.2480669,-1.72895455
-10.28496075,10.19806671,-1.6789546
-10.13496017,10.14806747,-1.6789546
-10.18496037,10.19806671,-1.62895465
-10.13496017,10.2480669,-1.62895465
-10.33495998,10.14806747,-1.57895458
-10.13496017,9.94806671,-1.57895458
-10.23496056,10.14806747,-1.57895458
-10.83495998,10.34806728,-1.62895465
-10.78496075,10.34806728,-1.62895465
-10.73496056,10.39806747,-1.6789546
-10.88496017,10.64806747,-1.82895458
-10.68496037,10.44806671,-1.6789546
-10.58495998,10.4980669,-1.6789546
-10.58495998,10.54806709,-1.6789546
-10.53496075,10.4980669,-1.6789546
-10.88496017,10.69806671,-1.82895458
-10.83495998,10.7480669,-1.82895458
-10.73496056,10.79806709,-1.87895465
-10.88496017,11.04806709,-1.9289546
-10.83495998,11.04806709,-1.9289546
-10.78496075,10.9980669,-1.9289546
-10.73496056,10.9980669,-1.87895465
-10.68496037,10.84806728,-1.87895465
-10.53496075,10.84806728,-1.87895465
-10.63496017,10.94806671,-1.87895465
-10.68496037,10.9980669,-1.9289546
-10.58495998,10.89806747,-1.87895465
-10.53496075,10.9980669,-1.9289546
-10.33495998,10.39806747,-1.77895463
-10.33495998,10.44806671,-1.77895463
-10.33495998,10.4980669,-1.82895458
-10.23496056,10.34806728,-1.77895463
-10.28496075,10.39806747,-1.77895463
-10.48496056,10.79806709,-1.82895458
-10.43496037,10.79806709,-1.82895458
-10.33495998,10.79806709,-1.87895465
-10.43496037,11.04806709,-1.9289546
-10.28496075,10.79806709,-1.87895465
-10.23496056,10.79806709,-1.87895465
-10.18496037,10.7480669,-1.87895465
-10.13496017,10.69806671,-1.87895465
-10.03496075,9.4980669,-1.6789546
-10.08495998,9.59806728,-1.62895465
-9.98496056,9.59806728,-1.62895465
-10.08495998,9.54806709,-1.52895463
-10.03496075,9.4980669,-1.52895463
-10.08495998,9.59806728,-1.57895458
-10.03496075,9.59806728,-1.57895458
-9.93496037,9.54806709,-1.52895463
-9.98496056,9.64806747,-1.57895458
-10.08495998,9.69806671,-1.57895458
-10.03496075,9.7480669,-1.57895458
-10.08495998,9.79806709,-1.57895458
-10.08495998,9.84806728,-1.57895458
-9.98496056,9.69806671,-1.57895458
-9.88496017,9.54806709,-1.57895458
-9.83495998,9.4980669,-1.52895463
-9.78496075,9.54806709,-1.57895458
-9.78496075,9.54806709,-1.52895463
-9.73496056,9.4980669,-1.52895463
-9.73496056,9.54806709,-1.57895458
-9.73496056,9.54806709,-1.52895463
-9.78496075,9.64806747,-1.52895463
-9.83495998,9.7480669,-1.52895463
-9.88496017,9.79806709,-1.52895463
-9.88496017,9.84806728,-1.57895458
-9.73496056,9.84806728,-1.57895458
-10.08495998,9.94806671,-1.62895465
-10.03496075,9.94806671,-1.62895465
-10.08495998,9.9980669,-1.62895465
-10.08495998,10.04806709,-1.6789546
-9.98496056,10.04806709,-1.62895465
-10.03496075,10.19806671,-1.6789546
-10.03496075,10.19806671,-1.62895465
-10.03496075,10.2480669,-1.62895465
-9.98496056,10.09806728,-1.62895465
-9.98496056,10.14806747,-1.62895465
-9.98496056,10.2480669,-1.6789546
-9.88496017,9.94806671,-1.62895465
-9.83495998,10.04806709,-1.62895465
-9.78496075,9.9980669,-1.62895465
-9.83495998,10.2480669,-1.62895465
-9.78496075,10.19806671,-1.62895465
-10.08495998,9.89806747,-1.57895458
-9.93496037,9.89806747,-1.57895458
-9.93496037,9.94806671,-1.57895458
-9.98496056,9.94806671,-1.47895455
-9.98496056,9.9980669,-1.57895458
-10.08495998,10.14806747,-1.57895458
-9.98496056,10.09806728,-1.52895463
-9.93496037,10.19806671,-1.57895458
-9.88496017,9.9980669,-1.52895463
-9.83495998,10.04806709,-1.52895463
-9.88496017,9.9980669,-1.47895455
-9.78496075,9.89806747,-1.57895458
-9.73496056,9.94806671,-1.52895463
-9.73496056,10.04806709,-1.57895458
-9.73496056,10.04806709,-1.37895465
-9.83495998,10.09806728,-1.57895458
-9.83495998,10.09806728,-1.52895463
-9.88496017,10.19806671,-1.57895458
-9.78496075,10.09806728,-1.52895463
-9.73496056,10.09806728,-1.4289546
-9.78496075,10.2480669,-1.57895458
-9.73496056,10.2480669,-1.57895458
-9.68496037,9.4980669,-1.57895458
-9.68496037,9.59806728,-1.52895463
-9.63496017,9.64806747,-1.52895463
-9.58495998,9.54806709,-1.52895463
-9.53496075,9.4980669,-1.57895458
-9.53496075,9.64806747,-1.47895455
-9.53496075,9.64806747,-1.32895458
-9.68496037,9.69806671,-1.52895463
-9.63496017,9.69806671,-1.52895463
-9.68496037,9.79806709,-1.52895463
-9.68496037,9.84806728,-1.52895463
-9.63496017,9.84806728,-1.57895458
-9.58495998,9.84806728,-1.57895458
-9.53496075,9.84806728,-1.47895455
-9.53496075,9.84806728,-1.37895465
-9.43496037,9.64806747,-1.52895463
-9.38496017,9.59806728,-1.47895455
-9.48496056,9.69806671,-1.52895463
-9.48496056,9.7480669,-1.52895463
-9.43496037,9.69806671,-1.52895463
-9.43496037,9.7480669,-1.52895463
-9.38496017,9.7480669,-1.57895458
-9.33495998,9.84806728,-1.52895463
-9.33495998,9.79806709,-1.4289546
-9.33495998,9.84806728,-1.47895455
-9.38496017,9.84806728,-1.32895458
-9.68496037,9.9980669,-1.62895465
-9.53496075,10.14806747,-1.62895465
-9.48496056,10.2480669,-1.62895465
-9.68496037,9.89806747,-1.57895458
-9.68496037,9.94806671,-1.57895458
-9.68496037,9.9980669,-1.57895458
-9.63496017,9.9980669,-1.52895463
-9.53496075,9.94806671,-1.57895458
-9.53496075,9.94806671,-1.52895463
-9.58495998,9.89806747,-1.47895455
-9.53496075,9.94806671,-1.47895455
-9.53496075,10.04806709,-1.57895458
-9.53496075,10.04806709,-1.52895463
-9.68496037,10.04806709,-1.32895458
-9.63496017,9.9980669,-1.37895465
-9.58495998,9.94806671,-1.37895465
-9.58495998,10.04806709,-1.37895465
-9.58495998,10.04806709,-1.32895458
-9.58495998,9.9980669,-1.27895463
-9.58495998,10.09806728,-1.52895463
-9.58495998,10.14806747,-1.57895458
-9.53496075,10.09806728,-1.52895463
-9.53496075,10.14806747,-1.4289546
-9.58495998,10.2480669,-1.57895458
-9.53496075,10.19806671,-1.57895458
-9.68496037,10.09806728,-1.37895465
-9.63496017,10.09806728,-1.37895465
-9.63496017,10.19806671,-1.37895465
-9.58495998,10.09806728,-1.37895465
-9.58495998,10.19806671,-1.22895455
-9.48496056,9.94806671,-1.57895458
-9.48496056,9.94806671,-1.47895455
-9.43496037,9.89806747,-1.4289546
-9.43496037,9.94806671,-1.4289546
-9.48496056,10.04806709,-1.52895463
-9.38496017,9.89806747,-1.57895458
-9.33495998,9.94806671,-1.47895455
-9.43496037,9.94806671,-1.32895458
-9.48496056,9.94806671,-1.27895463
-9.38496017,9.89806747,-1.32895458
-9.38496017,9.94806671,-1.32895458
-9.43496037,10.09806728,-1.52895463
-9.48496056,10.09806728,-1.37895465
-9.48496056,10.14806747,-1.37895465
-9.43496037,10.09806728,-1.37895465
-9.38496017,10.14806747,-1.22895455
-9.53496075,10.04806709,-1.1789546
-9.48496056,9.94806671,-1.1789546
-9.43496037,9.89806747,-1.1789546
-9.48496056,10.04806709,-1.1789546
-9.43496037,10.04806709,-1.1789546
-10.08495998,10.29806709,-1.6789546
-10.03496075,10.34806728,-1.62895465
-10.03496075,10.44806671,-1.77895463
-10.03496075,10.44806671,-1.6789546
-9.93496037,10.29806709,-1.62895465
-9.93496037,10.34806728,-1.62895465
-9.98496056,10.39806747,-1.62895465
-10.03496075,10.54806709,-1.82895458
-10.08495998,10.64806747,-1.87895465
-10.03496075,10.59806728,-1.82895458
-9.98496056,10.54806709,-1.82895458
-9.88496017,10.29806709,-1.62895465
-9.83495998,10.29806709,-1.62895465
-9.83495998,10.34806728,-1.6789546
-9.88496017,10.44806671,-1.6789546
-9.78496075,10.29806709,-1.62895465
-9.73496056,10.64806747,-1.82895458
-9.83495998,10.59806728,-1.77895463
-9.78496075,10.59806728,-1.77895463
-9.73496056,10.29806709,-1.52895463
-9.93496037,10.7480669,-1.82895458
-9.93496037,10.69806671,-1.77895463
-9.88496017,10.7480669,-1.82895458
-9.78496075,10.7480669,-1.87895465
-9.68496037,10.34806728,-1.62895465
-9.63496017,10.39806747,-1.6789546
-9.58495998,10.34806728,-1.62895465
-9.58495998,10.44806671,-1.72895455
-9.53496075,10.39806747,-1.6789546
-9.53496075,10.44806671,-1.6789546
-9.68496037,10.59806728,-1.82895458
-9.68496037,10.64806747,-1.87895465
-9.58495998,10.4980669,-1.72895455
-9.58495998,10.54806709,-1.72895455
-9.43496037,10.44806671,-1.72895455
-9.38496017,10.44806671,-1.72895455
-9.33495998,10.44806671,-1.6789546
-9.53496075,10.59806728,-1.57895458
-9.43496037,10.29806709,-1.52895463
-9.38496017,10.34806728,-1.57895458
-10.83495998,11.2480669,-1.9289546
-10.78496075,11.19806671,-1.9289546
-10.78496075,11.2480669,-1.9289546
-10.88496017,11.29806709,-1.87895465
-12.48496056,12.7480669,-1.62895465
-12.48496056,12.79806709,-1.62895465
-12.43496037,12.79806709,-1.62895465
-12.33495998,12.84806728,-1.6789546
-12.48496056,13.04806709,-1.62895465
-12.18496037,12.7480669,-1.62895465
-12.13496017,12.69806671,-1.62895465
-12.48496056,12.69806671,-1.57895458
-12.48496056,12.69806671,-1.47895455
-12.48496056,12.79806709,-1.57895458
-12.43496037,12.79806709,-1.57895458
-12.43496037,12.79806709,-1.52895463
-12.43496037,12.79806709,-1.4289546
-12.38496017,12.79806709,-1.52895463
-12.38496017,12.84806728,-1.47895455
-12.43496037,12.69806671,-1.37895465
-12.43496037,12.84806728,-1.32895458
-12.38496017,12.69806671,-1.32895458
-12.43496037,12.94806671,-1.52895463
-12.48496056,13.04806709,-1.57895458
-12.43496037,13.04806709,-1.57895458
-12.48496056,12.89806747,-1.32895458
-12.43496037,12.94806671,-1.37895465
-12.43496037,13.04806709,-1.27895463
-12.33495998,12.94806671,-1.27895463
-12.18496037,12.69806671,-1.47895455
-12.28496075,12.84806728,-1.22895455
-12.23496056,12.84806728,-1.22895455
-12.23496056,12.89806747,-1.4289546
-12.43496037,13.09806728,-1.4289546
-12.03496075,12.69806671,-1.62895465
-12.08495998,12.69806671,-1.47895455
-12.03496075,12.69806671,-1.47895455
-12.08495998,12.69806671,-1.22895455
-12.48496056,12.9980669,-1.12895465
-12.13496017,12.69806671,-1.12895465
-12.13496017,12.7480669,-1.12895465
-12.13496017,12.7480669,-0.9289546
-12.08495998,12.69806671,-1.1789546
-12.08495998,12.7480669,-1.12895465
-12.03496075,12.69806671,-1.12895465
-9.13496017,9.4980669,-1.47895455
-9.18496037,9.64806747,-1.52895463
-9.23496056,9.69806671,-1.57895458
-9.28496075,9.7480669,-1.47895455
-9.23496056,9.7480669,-1.47895455
-9.28496075,9.84806728,-1.47895455
-9.23496056,9.79806709,-1.47895455
-9.13496017,9.84806728,-1.4289546
-9.08495998,9.54806709,-1.52895463
-9.03496075,9.4980669,-1.52895463
-8.98496056,9.4980669,-1.52895463
-8.93496037,9.4980669,-1.52895463
-8.93496037,9.59806728,-1.47895455
-9.03496075,9.84806728,-1.52895463
-9.08495998,9.79806709,-1.4289546
-9.08495998,9.84806728,-1.47895455
-8.98496056,9.84806728,-1.52895463
-8.98496056,9.79806709,-1.4289546
-9.28496075,10.19806671,-1.62895465
-9.28496075,10.2480669,-1.6789546
-9.18496037,10.19806671,-1.62895465
-9.28496075,9.89806747,-1.57895458
-9.23496056,9.94806671,-1.57895458
-9.28496075,9.89806747,-1.47895455
-9.23496056,9.89806747,-1.47895455
-9.23496056,9.9980669,-1.52895463
-9.18496037,9.89806747,-1.52895463
-9.18496037,9.9980669,-1.57895458
-9.18496037,9.9980669,-1.52895463
-9.18496037,10.04806709,-1.57895458
-9.13496017,9.9980669,-1.52895463
-9.13496017,10.04806709,-1.57895458
-9.23496056,10.14806747,-1.57895458
-9.18496037,10.14806747,-1.57895458
-9.13496017,10.14806747,-1.47895455
-9.08495998,10.04806709,-1.57895458
-9.03496075,10.04806709,-1.57895458
-8.98496056,9.89806747,-1.52895463
-8.98496056,9.94806671,-1.47895455
-8.98496056,9.9980669,-1.57895458
-8.93496037,9.94806671,-1.37895465
-9.08495998,10.09806728,-1.57895458
-8.88496017,9.54806709,-1.4289546
-8.88496017,9.4980669,-1.22895455
-8.78496075,9.4980669,-1.22895455
-8.73496056,9.79806709,-1.52895463
-8.88496017,9.69806671,-1.27895463
-8.78496075,9.79806709,-1.37895465
-8.68496037,9.4980669,-1.47895455
-8.68496037,9.4980669,-1.4289546
-8.63496017,9.54806709,-1.47895455
-8.63496017,9.59806728,-1.47895455
-8.63496017,9.59806728,-1.4289546
-8.53496075,9.64806747,-1.52895463
-8.63496017,9.7480669,-1.57895458
-8.68496037,9.79806709,-1.4289546
-8.88496017,9.89806747,-1.52895463
-8.83495998,9.89806747,-1.52895463
-8.83495998,9.94806671,-1.57895458
-8.88496017,9.94806671,-1.4289546
-8.83495998,9.94806671,-1.4289546
-8.88496017,10.04806709,-1.52895463
-8.73496056,9.89806747,-1.57895458
-8.78496075,9.89806747,-1.4289546
-8.73496056,9.4980669,-1.12895465
-9.28496075,10.29806709,-1.6789546
-9.28496075,10.34806728,-1.6789546
-9.28496075,10.39806747,-1.6789546
-9.18496037,10.29806709,-1.6789546
-9.18496037,10.29806709,-1.62895465
-9.18496037,10.39806747,-1.62895465
-34.93495941,39.84806824,-2.8289547
-34.98495865,39.84806824,-2.72895455
-34.93495941,39.798069,-2.77895451
-34.93495941,39.798069,-2.62895465
-34.93495941,39.74806595,-2.5789547
-34.98495865,39.84806824,-2.5789547
-34.98495865,39.84806824,-2.52895451
-34.93495941,39.798069,-2.4289546
-34.93495941,39.84806824,-2.37895465
-34.93495941,39.798069,-2.22895455
-34.93495941,39.84806824,-2.22895455
-35.08496094,40.048069,-2.8289547
-34.98495865,39.94806671,-2.87895465
-35.08496094,40.09806824,-2.8289547
-34.93495941,40.09806824,-2.87895465
-34.93495941,40.14806747,-2.87895465
-34.93495941,40.24806595,-2.87895465
-35.0349617,40.64806747,-2.87895465
-35.0349617,40.64806747,-2.8289547
-34.98495865,40.548069,-2.87895465
-34.93495941,40.548069,-2.87895465
-35.33496094,40.34806824,-2.4289546
-35.43495941,40.49806595,-2.72895455
-35.33496094,40.49806595,-2.72895455
-35.33496094,40.49806595,-2.6789546
-35.33496094,40.49806595,-2.62895465
-35.38496017,40.64806747,-2.6789546
-35.48495865,40.548069,-2.52895451
-35.43495941,40.548069,-2.52895451
-35.43495941,40.548069,-2.4289546
-35.48495865,40.59806824,-2.5789547
-35.43495941,40.59806824,-2.52895451
-35.43495941,40.64806747,-2.47895455
-35.38496017,40.49806595,-2.4289546
-35.33496094,40.64806747,-2.5789547
-35.33496094,40.64806747,-2.47895455
-35.38496017,40.44806671,-2.3289547
-35.33496094,40.34806824,-2.12895465
-35.38496017,40.44806671,-2.0789547
-35.43495941,40.49806595,-2.3289547
-35.43495941,40.59806824,-2.27895451
-35.33496094,40.49806595,-2.3289547
-35.38496017,40.548069,-2.22895455
-35.33496094,40.49806595,-2.22895455
-35.38496017,40.59806824,-2.37895465
-35.48495865,40.548069,-2.1789546
-35.48495865,40.59806824,-2.0789547
-35.43495941,40.64806747,-2.02895451
-35.33496094,40.64806747,-2.1789546
-35.38496017,40.59806824,-2.0789547
-35.13496017,40.048069,-2.5789547
-35.23495865,40.19806671,-2.72895455
-35.2849617,40.24806595,-2.62895465
-35.18495941,40.19806671,-2.77895451
-35.18495941,40.19806671,-2.72895455
-35.18495941,40.19806671,-2.62895465
-35.18495941,40.24806595,-2.62895465
-35.0349617,39.94806671,-2.62895465
-35.08496094,40.048069,-2.72895455
-35.0349617,40.048069,-2.77895451
-35.0349617,40.048069,-2.72895455
-35.0349617,40.048069,-2.6789546
-35.0349617,40.048069,-2.62895465
-34.93495941,39.94806671,-2.77895451
-34.98495865,39.94806671,-2.62895465
-35.0349617,40.048069,-2.5789547
-34.98495865,40.048069,-2.52895451
-34.93495941,39.99806595,-2.5789547
-35.08496094,40.09806824,-2.72895455
-35.0349617,40.09806824,-2.72895455
-35.08496094,40.09806824,-2.6789546
-35.08496094,40.19806671,-2.77895451
-35.0349617,40.19806671,-2.77895451
-35.0349617,40.19806671,-2.62895465
-34.93495941,40.24806595,-2.5789547
-35.13496017,40.048069,-2.27895451
-35.23495865,40.24806595,-2.3289547
-35.18495941,40.09806824,-2.27895451
-35.13496017,40.19806671,-2.37895465
-35.0349617,39.89806747,-2.37895465
-34.98495865,39.89806747,-2.3289547
-34.93495941,39.89806747,-2.37895465
-35.08496094,39.99806595,-2.1789546
-35.0349617,40.048069,-2.1789546
-35.23495865,40.298069,-2.72895455
-35.23495865,40.298069,-2.62895465
-35.23495865,40.39806747,-2.72895455
-35.2849617,40.39806747,-2.6789546
-35.23495865,40.39806747,-2.6789546
-35.23495865,40.44806671,-2.6789546
-35.18495941,40.298069,-2.77895451
-35.23495865,40.34806824,-2.47895455
-35.2849617,40.39806747,-2.47895455
-35.23495865,40.49806595,-2.72895455
-35.2849617,40.548069,-2.62895465
-35.2849617,40.59806824,-2.72895455
-35.23495865,40.59806824,-2.77895451
-35.18495941,40.548069,-2.72895455
-35.18495941,40.64806747,-2.77895451
-35.13496017,40.59806824,-2.77895451
-35.2849617,40.49806595,-2.5789547
-35.23495865,40.49806595,-2.52895451
-35.23495865,40.548069,-2.52895451
-35.23495865,40.64806747,-2.47895455
-35.18495941,40.64806747,-2.47895455
-35.08496094,40.34806824,-2.6789546
-35.08496094,40.39806747,-2.77895451
-35.08496094,40.44806671,-2.72895455
-35.0349617,40.44806671,-2.72895455
-35.0349617,40.44806671,-2.6789546
-34.93495941,40.34806824,-2.5789547
-35.08496094,40.548069,-2.72895455
-34.93495941,40.64806747,-2.77895451
-35.0349617,40.64806747,-2.5789547
-35.08496094,40.59806824,-2.47895455
-34.98495865,40.548069,-2.4289546
-34.93495941,40.548069,-2.4289546
-34.98495865,40.59806824,-2.5789547
-34.93495941,40.59806824,-2.5789547
-34.98495865,40.59806824,-2.47895455
-35.23495865,40.298069,-2.37895465
-35.2849617,40.39806747,-2.37895465
-35.2849617,40.548069,-2.3289547
-35.2849617,40.64806747,-2.22895455
-35.23495865,40.64806747,-2.27895451
-35.18495941,40.59806824,-2.37895465
-35.18495941,40.64806747,-2.27895451
-35.0349617,40.64806747,-2.27895451
-34.98495865,40.64806747,-2.27895451
-34.93495941,40.59806824,-2.12895465
-34.93495941,40.64806747,-2.12895465
-35.0349617,40.69806671,-2.9289546
-35.0349617,40.69806671,-2.8289547
-34.98495865,40.74806595,-2.97895455
-34.98495865,40.69806671,-2.87895465
-34.93495941,40.798069,-2.87895465
-34.93495941,41.24806595,-2.8289547
-35.5349617,40.69806671,-2.5789547
-35.5349617,40.74806595,-2.5789547
-35.68495941,40.94806671,-2.62895465
-35.58496094,41.048069,-2.62895465
-35.63496017,41.048069,-2.5789547
-35.68495941,41.048069,-2.47895455
-35.58496094,40.89806747,-2.5789547
-35.58496094,41.048069,-2.4289546
-35.33496094,40.74806595,-2.6789546
-35.38496017,40.84806824,-2.6789546
-35.38496017,40.84806824,-2.62895465
-35.48495865,40.69806671,-2.52895451
-35.48495865,40.798069,-2.52895451
-35.38496017,40.69806671,-2.5789547
-35.38496017,40.69806671,-2.52895451
-35.38496017,40.84806824,-2.47895455
