x,y,z
-34.434959,45.298069,-0.628955
-34.234959,45.098068,-0.478955
-34.034962,44.698067,-1.428955
-33.734959,44.698067,-1.428955
-33.784962,44.898067,-1.228955
-33.734959,44.948067,-1.228955
-33.684959,44.698067,-1.578955
-33.63496,44.748066,-1.428955
-34.084961,44.698067,-1.128955
-34.084961,44.698067,-0.978955
-34.084961,44.848068,-0.928955
-33.984959,44.898067,-0.878955
-33.734959,44.698067,-1.128955
-33.934959,44.848068,-0.728955
-34.084961,44.898067,-0.728955
-33.984959,45.048069,-0.678955
-33.734959,44.748066,-0.728955
-33.88496,45.198067,-0.628955
-33.784962,45.098068,-0.628955
-33.684959,44.748066,-1.078955
-33.684959,44.848068,-1.078955
-33.534962,44.748066,-1.078955
-33.584961,44.848068,-1.078955
-33.63496,44.698067,-0.928955
-33.684959,44.948067,-0.878955
-33.534962,44.998066,-0.828955
-33.534962,45.048069,-0.828955
-33.684959,44.798069,-0.728955
-33.63496,44.798069,-0.528955
-33.534962,44.698067,-0.578955
-33.484959,44.698067,-0.728955
-33.434959,44.848068,-0.678955
-33.38496,44.698067,-0.728955
-33.434959,44.698067,-0.578955
-33.484959,44.798069,-0.528955
-33.334961,44.698067,-0.528955
-33.434959,44.948067,-0.478955
-33.334961,45.048069,-0.428955
-34.784962,44.948067,-0.378955
-34.584961,44.798069,-0.228955
-34.584961,44.748066,-0.078955
-34.584961,44.848068,-0.028955
-34.684959,45.048069,-0.328955
-34.784962,45.248066,-0.028955
-34.734959,45.248066,0.121045
-34.484959,44.698067,-0.278955
-34.434959,44.698067,-0.278955
-34.434959,44.748066,-0.278955
-34.38496,44.798069,-0.228955
-34.434959,44.698067,-0.078955
-34.234959,44.748066,0.171045
-34.784962,44.848068,0.521045
-34.88496,44.898067,0.571045
-34.734959,44.798069,0.871045
-34.88496,45.198067,0.721045
-34.584961,45.248066,0.721045
-34.034962,44.748066,-0.228955
-33.984959,44.698067,-0.278955
-33.984959,44.798069,-0.178955
-34.084961,45.048069,-0.278955
-33.984959,44.898067,-0.328955
-33.534962,44.848068,-0.128955
-33.684959,44.998066,-0.278955
-33.534962,45.048069,-0.228955
-33.38496,44.698067,0.071045
-33.584961,45.148067,-0.228955
-33.434959,45.098068,-0.228955
-33.334961,45.148067,0.071045
-33.784962,44.698067,0.421045
-33.734959,44.698067,0.421045
-33.984959,44.998066,0.871045
-33.934959,44.998066,0.871045
-33.284962,44.848068,-1.578955
-33.234959,44.748066,-1.228955
-33.284962,44.798069,-1.228955
-33.284962,44.698067,-1.078955
-33.184959,44.698067,-1.078955
-33.234959,44.698067,-0.528955
-33.184959,44.848068,-0.278955
-33.13496,44.848068,-0.278955
-33.184959,44.698067,-0.128955
-31.38496,35.148067,-3.228955
-31.334961,35.098068,-3.178955
-31.38496,35.098068,-2.878955
-31.63496,35.798069,-2.828955
-31.584961,35.848068,-2.928955
-31.584961,35.848068,-2.828955
-31.334961,35.698067,-3.078955
-31.13496,35.148067,-3.128955
-31.28496,35.098068,-2.828955
-31.13496,35.348068,-3.078955
-31.234961,35.348068,-2.928955
-31.234961,35.398067,-2.928955
-31.03496,35.298069,-3.028955
-31.084961,35.448067,-3.078955
-31.03496,35.448067,-3.078955
-31.28496,35.498066,-2.828955
-31.184961,35.598068,-2.828955
-31.38496,35.148067,-2.728955
-31.334961,35.148067,-2.728955
-31.38496,35.198067,-2.428955
-31.334961,35.248066,-2.428955
-31.434961,35.298069,-2.478955
-31.434961,35.448067,-2.578955
-31.434961,35.448067,-2.528955
-31.434961,35.448067,-2.428955
-31.38496,35.298069,-2.478955
-31.38496,35.348068,-2.428955
-31.38496,35.398067,-2.478955
-31.38496,35.198067,-2.328955
-31.38496,35.248066,-2.328955
-31.334961,35.198067,-2.328955
-31.334961,35.198067,-2.278955
-31.334961,35.148067,-2.178955
-31.434961,35.348068,-2.328955
-31.434961,35.348068,-2.278955
-31.484961,35.398067,-2.328955
-31.484961,35.398067,-2.228955
-31.484961,35.448067,-2.228955
-31.434961,35.448067,-2.228955
-31.334961,35.348068,-2.228955
-31.38496,35.448067,-2.378955
-31.334961,35.398067,-2.378955
-31.334961,35.398067,-2.278955
-31.334961,35.398067,-2.228955
-31.484961,35.398067,-2.128955
-31.484961,35.398067,-2.078955
-31.434961,35.448067,-2.078955
-31.38496,35.448067,-2.128955
-31.53496,35.748066,-2.728955
-31.584961,35.798069,-2.778955
-31.584961,35.848068,-2.778955
-31.53496,35.798069,-2.728955
-31.53496,35.848068,-2.728955
-31.584961,35.748066,-2.428955
-31.584961,35.798069,-2.478955
-31.434961,35.498066,-2.528955
-31.484961,35.498066,-2.478955
-31.434961,35.498066,-2.428955
-31.38496,35.498066,-2.428955
-31.434961,35.848068,-2.778955
-31.334961,35.848068,-2.728955
-31.484961,35.748066,-2.528955
-31.53496,35.648067,-2.328955
-31.53496,35.648067,-2.228955
-31.53496,35.648067,-2.028955
-31.63496,35.798069,-2.278955
-31.53496,35.848068,-2.128955
-31.484961,35.548069,-2.228955
-31.434961,35.598068,-2.328955
-31.38496,35.498066,-2.328955
-31.38496,35.498066,-2.278955
-31.38496,35.648067,-2.278955
-31.434961,35.498066,-2.078955
-31.38496,35.498066,-2.028955
-31.38496,35.598068,-2.128955
-31.484961,35.748066,-2.228955
-31.484961,35.798069,-2.128955
-31.38496,35.698067,-2.128955
-31.38496,35.798069,-2.128955
-31.334961,35.798069,-2.178955
-31.234961,35.198067,-2.578955
-31.28496,35.248066,-2.428955
-31.234961,35.198067,-2.428955
-31.184961,35.148067,-2.528955
-31.13496,35.098068,-2.528955
-31.184961,35.148067,-2.428955
-31.184961,35.198067,-2.578955
-31.184961,35.248066,-2.528955
-31.13496,35.198067,-2.528955
-31.184961,35.248066,-2.428955
-31.13496,35.198067,-2.428955
-31.28496,35.398067,-2.778955
-31.234961,35.448067,-2.628955
-31.13496,35.298069,-2.678955
-31.13496,35.348068,-2.628955
-31.234961,35.348068,-2.578955
-31.234961,35.348068,-2.528955
-31.28496,35.298069,-2.478955
-31.234961,35.298069,-2.428955
-31.184961,35.298069,-2.578955
-31.184961,35.348068,-2.578955
-31.13496,35.348068,-2.578955
-31.184961,35.348068,-2.428955
-31.13496,35.298069,-2.428955
-31.13496,35.348068,-2.478955
-31.184961,35.398067,-2.578955
-31.184961,35.398067,-2.478955
-31.084961,35.098068,-2.528955
-31.084961,35.098068,-2.478955
-31.03496,35.148067,-2.428955
-31.084961,35.198067,-2.478955
-31.084961,35.248066,-2.428955
-31.03496,35.198067,-2.478955
-30.934961,35.098068,-2.528955
-30.984961,35.098068,-2.478955
-30.984961,35.148067,-2.478955
-30.984961,35.198067,-2.528955
-31.03496,35.448067,-2.728955
-31.03496,35.298069,-2.528955
-31.084961,35.348068,-2.478955
-31.03496,35.298069,-2.428955
-31.03496,35.348068,-2.428955
-31.084961,35.448067,-2.578955
-30.984961,35.298069,-2.478955
-30.984961,35.348068,-2.428955
-30.934961,35.348068,-2.428955
-30.984961,35.398067,-2.428955
-30.934961,35.398067,-2.428955
-31.28496,35.148067,-2.278955
-31.234961,35.148067,-2.278955
-31.234961,35.148067,-2.228955
-31.184961,35.248066,-2.328955
-31.184961,35.198067,-2.278955
-31.184961,35.248066,-2.278955
-31.234961,35.148067,-2.128955
-31.184961,35.248066,-2.128955
-31.28496,35.298069,-2.328955
-31.28496,35.298069,-2.278955
-31.234961,35.348068,-2.278955
-31.28496,35.448067,-2.278955
-31.234961,35.448067,-2.228955
-31.13496,35.298069,-2.278955
-31.184961,35.398067,-2.228955
-31.13496,35.448067,-2.228955
-31.234961,35.298069,-2.178955
-31.234961,35.348068,-2.178955
-31.234961,35.448067,-2.128955
-31.184961,35.448067,-2.128955
-31.084961,35.098068,-2.378955
-31.084961,35.148067,-2.378955
-31.03496,35.148067,-2.228955
-31.084961,35.248066,-2.278955
-30.984961,35.148067,-2.328955
-30.934961,35.148067,-2.228955
-30.934961,35.198067,-2.378955
-30.934961,35.248066,-2.378955
-30.984961,35.198067,-2.228955
-30.934961,35.198067,-2.278955
-31.084961,35.248066,-2.128955
-31.03496,35.298069,-2.328955
-31.03496,35.348068,-2.328955
-31.084961,35.298069,-2.228955
-30.984961,35.448067,-2.078955
-31.184961,35.498066,-2.628955
-31.13496,35.748066,-2.478955
-31.084961,35.548069,-2.528955
-31.28496,35.548069,-2.328955
-31.234961,35.498066,-2.378955
-31.234961,35.498066,-2.328955
-31.28496,35.498066,-2.228955
-31.234961,35.548069,-2.228955
-31.234961,35.598068,-2.328955
-31.184961,35.498066,-2.178955
-31.13496,35.548069,-2.028955
-31.28496,35.698067,-2.228955
-31.13496,35.748066,-2.328955
-31.234961,35.798069,-2.128955
-31.184961,35.748066,-2.178955
-31.084961,35.498066,-2.278955
-31.084961,35.548069,-2.178955
-31.084961,35.498066,-2.028955
-31.084961,35.648067,-2.178955
-30.984961,35.498066,-2.178955
-30.984961,35.548069,-2.178955
-30.934961,35.498066,-2.028955
-30.934961,35.648067,-2.178955
-30.984961,35.598068,-2.078955
-31.084961,35.848068,-2.278955
-31.084961,35.698067,-2.128955
-31.03496,35.798069,-2.128955
-30.984961,35.698067,-2.178955
-30.934961,35.848068,-2.178955
-31.684961,36.048069,-3.078955
-31.584961,35.948067,-3.078955
-31.63496,35.948067,-2.978955
-31.63496,35.948067,-2.928955
-31.63496,35.898067,-2.828955
-31.684961,35.998066,-2.878955
-31.63496,36.048069,-2.828955
-31.53496,35.948067,-2.978955
-31.53496,35.948067,-2.928955
-31.684961,36.098068,-2.878955
-31.684961,36.148067,-2.878955
-31.63496,36.098068,-2.828955
-31.684961,36.248066,-2.928955
-31.38496,35.948067,-2.878955
-31.434961,36.098068,-2.928955
-31.584961,36.548069,-3.228955
-31.63496,36.348068,-2.978955
-31.63496,36.448067,-2.928955
-31.584961,36.298069,-2.928955
-31.584961,36.448067,-2.928955
-31.584961,36.398067,-2.878955
-31.584961,36.448067,-2.878955
-31.53496,36.648067,-3.128955
-31.584961,36.648067,-2.878955
-31.334961,36.448067,-3.178955
-31.434961,36.598068,-2.978955
-31.334961,36.648067,-2.978955
-31.13496,35.948067,-2.878955
-31.084961,36.048069,-2.928955
-31.184961,36.448067,-2.978955
-31.184961,36.548069,-2.928955
-31.13496,36.648067,-2.978955
-31.084961,36.498066,-2.978955
-31.03496,36.598068,-2.928955
-31.684961,36.048069,-2.628955
-31.53496,35.898067,-2.778955
-31.53496,35.898067,-2.478955
-31.53496,35.998066,-2.478955
-31.53496,36.048069,-2.478955
-31.684961,36.148067,-2.578955
-31.684961,36.098068,-2.478955
-31.63496,36.098068,-2.478955
-31.63496,36.248066,-2.478955
-31.584961,36.098068,-2.478955
-31.334961,35.998066,-2.778955
-31.38496,36.148067,-2.578955
-31.684961,35.948067,-2.278955
-31.63496,36.148067,-2.328955
-31.684961,36.248066,-2.328955
-31.684961,36.248066,-2.278955
-31.63496,36.248066,-2.278955
-31.63496,36.248066,-2.228955
-31.53496,36.248066,-2.278955
-31.53496,36.148067,-2.078955
-31.584961,36.248066,-2.128955
-31.334961,36.048069,-2.278955
-31.334961,35.998066,-2.178955
-31.484961,36.148067,-2.378955
-31.434961,36.148067,-2.278955
-31.484961,36.198067,-2.328955
-31.334961,36.098068,-2.228955
-31.684961,36.348068,-2.628955
-31.684961,36.398067,-2.678955
-31.584961,36.398067,-2.628955
-31.684961,36.298069,-2.528955
-31.63496,36.298069,-2.428955
-31.684961,36.398067,-2.528955
-31.63496,36.448067,-2.478955
-31.584961,36.348068,-2.478955
-31.584961,36.448067,-2.578955
-31.584961,36.448067,-2.428955
-31.53496,36.448067,-2.428955
-31.63496,36.648067,-2.778955
-31.684961,36.598068,-2.678955
-31.63496,36.598068,-2.628955
-31.584961,36.648067,-2.678955
-31.584961,36.648067,-2.628955
-31.684961,36.498066,-2.478955
-31.684961,36.598068,-2.578955
-31.63496,36.598068,-2.478955
-31.584961,36.548069,-2.578955
-31.53496,36.498066,-2.478955
-31.53496,36.598068,-2.528955
-31.434961,36.448067,-2.628955
-31.484961,36.348068,-2.528955
-31.484961,36.448067,-2.578955
-31.434961,36.398067,-2.478955
-31.38496,36.348068,-2.528955
-31.38496,36.398067,-2.528955
-31.484961,36.598068,-2.628955
-31.484961,36.548069,-2.478955
-31.484961,36.648067,-2.528955
-31.684961,36.348068,-2.378955
-31.63496,36.348068,-2.228955
-31.63496,36.448067,-2.378955
-31.584961,36.448067,-2.328955
-31.684961,36.348068,-2.028955
-31.63496,36.348068,-2.028955
-31.684961,36.448067,-2.178955
-31.684961,36.398067,-2.028955
-31.63496,36.498066,-2.328955
-31.63496,36.548069,-2.328955
-31.53496,36.498066,-2.378955
-31.684961,36.498066,-2.178955
-31.63496,36.498066,-2.128955
-31.63496,36.548069,-2.178955
-31.684961,36.498066,-2.078955
-31.684961,36.548069,-2.078955
-31.684961,36.598068,-2.178955
-31.63496,36.648067,-2.078955
-31.584961,36.548069,-2.178955
-31.53496,36.498066,-2.178955
-31.584961,36.498066,-2.078955
-31.584961,36.598068,-2.078955
-31.484961,36.298069,-2.328955
-31.38496,36.298069,-2.278955
-31.334961,36.348068,-2.278955
-31.434961,36.448067,-2.178955
-31.38496,36.448067,-2.128955
-31.334961,36.448067,-2.178955
-31.38496,36.448067,-2.078955
-31.484961,36.598068,-2.378955
-31.38496,36.498066,-2.378955
-31.334961,36.548069,-2.378955
-31.38496,36.598068,-2.378955
-31.484961,36.498066,-2.128955
-31.484961,36.648067,-2.128955
-31.434961,36.648067,-2.128955
-31.38496,36.548069,-2.078955
-31.38496,36.598068,-2.178955
-31.334961,36.598068,-2.178955
-31.38496,36.598068,-2.078955
-31.234961,36.098068,-2.428955
-31.234961,36.248066,-2.428955
-31.03496,35.948067,-2.528955
-31.03496,36.098068,-2.578955
-31.03496,36.148067,-2.478955
-31.084961,36.248066,-2.528955
-30.984961,36.098068,-2.478955
-31.234961,35.948067,-2.378955
-31.13496,36.048069,-2.228955
-31.28496,36.048069,-2.128955
-31.13496,35.948067,-2.178955
-31.234961,36.098068,-2.378955
-31.28496,36.248066,-2.328955
-31.184961,36.248066,-2.328955
-31.13496,36.198067,-2.328955
-31.13496,36.198067,-2.228955
-30.984961,35.898067,-2.128955
-30.984961,35.898067,-2.028955
-31.084961,36.148067,-2.328955
-31.03496,36.248066,-2.378955
-30.984961,36.148067,-2.378955
-31.184961,36.398067,-2.628955
-31.28496,36.298069,-2.478955
-31.234961,36.348068,-2.478955
-31.184961,36.348068,-2.528955
-31.13496,36.448067,-2.528955
-31.28496,36.498066,-2.678955
-31.184961,36.648067,-2.728955
-31.28496,36.548069,-2.428955
-31.234961,36.598068,-2.578955
-31.234961,36.648067,-2.478955
-31.184961,36.548069,-2.428955
-31.13496,36.548069,-2.478955
-31.084961,36.448067,-2.678955
-31.084961,36.398067,-2.578955
-31.03496,36.398067,-2.578955
-31.03496,36.448067,-2.478955
-30.934961,36.298069,-2.428955
-30.934961,36.348068,-2.478955
-30.934961,36.348068,-2.428955
-30.934961,36.448067,-2.578955
-30.934961,36.448067,-2.528955
-31.084961,36.598068,-2.778955
-31.03496,36.648067,-2.678955
-30.934961,36.498066,-2.728955
-31.234961,36.298069,-2.328955
-31.234961,36.348068,-2.328955
-31.234961,36.348068,-2.278955
-31.234961,36.448067,-2.378955
-31.13496,36.348068,-2.228955
-31.13496,36.398067,-2.228955
-31.234961,36.298069,-2.128955
-31.28496,36.398067,-2.178955
-31.234961,36.398067,-2.178955
-31.234961,36.498066,-2.128955
-31.28496,36.598068,-2.078955
-31.13496,36.598068,-2.178955
-31.084961,36.298069,-2.228955
-31.084961,36.348068,-2.228955
-31.03496,36.298069,-2.228955
-31.084961,36.398067,-2.328955
-31.084961,36.448067,-2.328955
-31.084961,36.448067,-2.228955
-31.03496,36.448067,-2.228955
-30.984961,36.398067,-2.378955
-31.03496,36.298069,-2.028955
-31.084961,36.448067,-2.028955
-30.984961,36.398067,-2.128955
-30.934961,36.398067,-2.028955
-30.934961,36.448067,-2.028955
-31.03496,36.498066,-2.278955
-31.084961,36.598068,-2.278955
-31.03496,36.598068,-2.278955
-31.084961,36.598068,-2.178955
-31.03496,36.598068,-2.178955
-30.984961,36.498066,-2.128955
-30.984961,36.548069,-2.178955
-30.984961,36.548069,-2.028955
-30.984961,36.648067,-2.028955
-30.834961,35.248066,-3.078955
-30.734961,35.248066,-3.078955
-30.88496,35.148067,-2.878955
-30.53496,35.348068,-2.928955
-30.734961,35.848068,-3.028955
-30.834961,35.848068,-2.978955
-30.78496,35.798069,-2.978955
-30.684961,35.798069,-3.128955
-30.684961,35.848068,-3.178955
-30.684961,35.798069,-3.028955
-30.584961,35.698067,-3.078955
-30.584961,35.798069,-3.128955
-30.684961,35.748066,-2.978955
-30.484961,35.148067,-3.028955
-30.484961,35.448067,-3.128955
-30.434961,35.398067,-3.128955
-30.38496,35.348068,-2.928955
-30.334961,35.348068,-2.928955
-30.28496,35.298069,-2.878955
-30.28496,35.398067,-2.928955
-30.28496,35.448067,-2.928955
-30.13496,35.548069,-2.978955
-30.184961,35.598068,-2.978955
-30.88496,35.098068,-2.628955
-30.88496,35.098068,-2.578955
-30.88496,35.148067,-2.578955
-30.834961,35.098068,-2.578955
-30.834961,35.098068,-2.478955
-30.88496,35.248066,-2.528955
-30.834961,35.248066,-2.528955
-30.78496,35.098068,-2.428955
-30.734961,35.098068,-2.428955
-30.834961,35.298069,-2.528955
-30.88496,35.398067,-2.428955
-30.78496,35.348068,-2.528955
-30.63496,35.148067,-2.728955
-30.684961,35.148067,-2.428955
-30.63496,35.098068,-2.428955
-30.584961,35.148067,-2.428955
-30.53496,35.148067,-2.428955
-30.584961,35.198067,-2.428955
-30.63496,35.448067,-2.778955
-30.684961,35.298069,-2.478955
-30.63496,35.298069,-2.428955
-30.684961,35.448067,-2.528955
-30.63496,35.448067,-2.428955
-30.584961,35.298069,-2.428955
-30.88496,35.148067,-2.378955
-30.88496,35.148067,-2.278955
-30.88496,35.198067,-2.378955
-30.78496,35.198067,-2.328955
-30.734961,35.248066,-2.328955
-30.88496,35.298069,-2.378955
-30.88496,35.348068,-2.378955
-30.78496,35.298069,-2.378955
-30.734961,35.398067,-2.228955
-30.78496,35.298069,-2.078955
-30.734961,35.348068,-2.078955
-30.734961,35.448067,-2.178955
-30.734961,35.448067,-2.078955
-30.734961,35.448067,-2.028955
-30.684961,35.248066,-2.378955
-30.584961,35.098068,-2.078955
-30.684961,35.398067,-2.378955
-30.584961,35.348068,-2.328955
-30.53496,35.348068,-2.078955
-30.88496,35.548069,-2.428955
-30.834961,35.498066,-2.428955
-30.734961,35.548069,-2.528955
-30.78496,35.648067,-2.428955
-30.734961,35.648067,-2.428955
-30.88496,35.748066,-2.478955
-30.88496,35.798069,-2.478955
-30.584961,35.548069,-2.628955
-30.53496,35.598068,-2.678955
-30.63496,35.648067,-2.478955
-30.584961,35.548069,-2.578955
-30.53496,35.598068,-2.528955
-30.63496,35.698067,-2.528955
-30.684961,35.798069,-2.428955
-30.63496,35.798069,-2.428955
-30.63496,35.848068,-2.428955
-30.584961,35.698067,-2.428955
-30.584961,35.748066,-2.428955
-30.53496,35.698067,-2.428955
-30.78496,35.498066,-2.378955
-30.78496,35.548069,-2.278955
-30.734961,35.498066,-2.228955
-30.734961,35.548069,-2.228955
-30.734961,35.598068,-2.328955
-30.88496,35.498066,-2.178955
-30.88496,35.598068,-2.178955
-30.88496,35.598068,-2.128955
-30.78496,35.648067,-2.178955
-30.734961,35.648067,-2.178955
-30.78496,35.698067,-2.328955
-30.78496,35.798069,-2.128955
-30.63496,35.498066,-2.378955
-30.684961,35.548069,-2.228955
-30.684961,35.548069,-2.178955
-30.684961,35.498066,-2.078955
-30.63496,35.598068,-2.028955
-30.584961,35.598068,-2.128955
-30.53496,35.648067,-2.178955
-30.684961,35.848068,-2.378955
-30.63496,35.848068,-2.378955
-30.584961,35.748066,-2.378955
-30.584961,35.848068,-2.378955
-30.53496,35.848068,-2.378955
-30.584961,35.698067,-2.178955
-30.584961,35.748066,-2.178955
-30.53496,35.748066,-2.128955
-30.584961,35.798069,-2.178955
-30.53496,35.848068,-2.128955
-30.434961,35.198067,-2.778955
-30.334961,35.148067,-2.628955
-30.484961,35.148067,-2.528955
-30.434961,35.098068,-2.528955
-30.434961,35.098068,-2.428955
-30.484961,35.198067,-2.578955
-30.484961,35.248066,-2.578955
-30.334961,35.098068,-2.478955
-30.434961,35.448067,-2.428955
-30.38496,35.398067,-2.428955
-30.184961,35.198067,-2.728955
-30.234961,35.098068,-2.578955
-30.28496,35.098068,-2.428955
-30.234961,35.198067,-2.428955
-30.184961,35.148067,-2.528955
-30.184961,35.098068,-2.428955
-30.184961,35.298069,-2.628955
-30.184961,35.398067,-2.628955
-30.13496,35.298069,-2.478955
-30.184961,35.448067,-2.578955
-30.484961,35.248066,-2.328955
-30.484961,35.198067,-2.228955
-30.484961,35.148067,-2.028955
-30.484961,35.198067,-2.178955
-30.484961,35.248066,-2.028955
-30.38496,35.148067,-2.128955
-30.334961,35.248066,-2.128955
-30.38496,35.248066,-2.028955
-30.434961,35.348068,-2.378955
-30.434961,35.348068,-2.228955
-30.334961,35.348068,-2.328955
-30.334961,35.398067,-2.178955
-30.334961,35.398067,-2.028955
-30.28496,35.098068,-2.378955
-30.234961,35.098068,-2.328955
-30.234961,35.098068,-2.278955
-30.184961,35.148067,-2.378955
-30.184961,35.148067,-2.278955
-30.184961,35.248066,-2.228955
-30.13496,35.198067,-2.228955
-30.28496,35.098068,-2.178955
-30.28496,35.148067,-2.128955
-30.234961,35.098068,-2.128955
-30.28496,35.098068,-2.028955
-30.28496,35.148067,-2.028955
-30.28496,35.198067,-2.128955
-30.28496,35.248066,-2.128955
-30.234961,35.248066,-2.178955
-30.234961,35.248066,-2.128955
-30.234961,35.298069,-2.278955
-30.13496,35.298069,-2.228955
-30.13496,35.348068,-2.278955
-30.13496,35.398067,-2.328955
-30.13496,35.398067,-2.278955
-30.28496,35.298069,-2.028955
-30.13496,35.348068,-2.028955
-30.184961,35.398067,-2.128955
-30.13496,35.448067,-2.128955
-30.184961,35.398067,-2.028955
-30.184961,35.448067,-2.028955
-30.484961,35.648067,-2.728955
-30.434961,35.598068,-2.678955
-30.434961,35.498066,-2.528955
-30.484961,35.648067,-2.428955
-30.434961,35.748066,-2.628955
-30.38496,35.698067,-2.628955
-30.484961,35.748066,-2.528955
-30.434961,35.698067,-2.428955
-30.434961,35.798069,-2.428955
-30.334961,35.798069,-2.478955
-30.234961,35.648067,-2.628955
-30.184961,35.498066,-2.678955
-30.184961,35.498066,-2.578955
-30.184961,35.648067,-2.578955
-30.13496,35.648067,-2.428955
-30.13496,35.748066,-2.628955
-30.184961,35.798069,-2.728955
-30.184961,35.848068,-2.728955
-30.184961,35.748066,-2.428955
-30.484961,35.548069,-2.328955
-30.484961,35.498066,-2.278955
-30.434961,35.548069,-2.278955
-30.484961,35.648067,-2.378955
-30.434961,35.598068,-2.378955
-30.434961,35.648067,-2.278955
-30.38496,35.548069,-2.278955
-30.38496,35.648067,-2.328955
-30.334961,35.598068,-2.278955
-30.38496,35.498066,-2.178955
-30.334961,35.548069,-2.178955
-30.334961,35.548069,-2.028955
-30.334961,35.598068,-2.178955
-30.484961,35.748066,-2.378955
-30.434961,35.698067,-2.328955
-30.484961,35.698067,-2.278955
-30.434961,35.848068,-2.378955
-30.38496,35.748066,-2.228955
-30.334961,35.698067,-2.278955
-30.38496,35.798069,-2.378955
-30.38496,35.798069,-2.278955
-30.334961,35.848068,-2.228955
-30.434961,35.748066,-2.128955
-30.334961,35.698067,-2.128955
-30.28496,35.548069,-2.328955
-30.234961,35.498066,-2.228955
-30.234961,35.548069,-2.228955
-30.13496,35.548069,-2.378955
-30.13496,35.548069,-2.278955
-30.184961,35.598068,-2.378955
-30.13496,35.648067,-2.328955
-30.184961,35.598068,-2.278955
-30.28496,35.498066,-2.128955
-30.28496,35.548069,-2.128955
-30.184961,35.498066,-2.128955
-30.184961,35.598068,-2.028955
-30.184961,35.648067,-2.028955
-30.234961,35.748066,-2.328955
-30.234961,35.748066,-2.228955
-30.28496,35.798069,-2.228955
-30.234961,35.798069,-2.228955
-30.13496,35.848068,-2.328955
-30.234961,35.748066,-2.128955
-30.28496,35.848068,-2.128955
-30.28496,35.798069,-2.078955
-30.234961,35.798069,-2.028955
-30.13496,35.748066,-2.128955
-30.184961,35.748066,-2.028955
-30.834961,36.048069,-2.978955
-30.834961,36.098068,-3.028955
-30.834961,36.148067,-3.028955
-30.684961,36.548069,-3.128955
-30.28496,35.998066,-3.528955
-30.434961,36.048069,-3.078955
-30.78496,35.898067,-2.528955
-30.734961,36.098068,-2.528955
-30.734961,36.148067,-2.428955
-30.63496,35.948067,-2.478955
-30.584961,35.898067,-2.578955
-30.834961,36.048069,-2.378955
-30.78496,35.948067,-2.278955
-30.734961,35.998066,-2.378955
-30.734961,35.998066,-2.228955
-30.734961,36.048069,-2.228955
-30.88496,35.898067,-2.028955
-30.78496,36.048069,-2.028955
-30.734961,36.048069,-2.028955
-30.834961,36.098068,-2.228955
-30.834961,36.248066,-2.328955
-30.734961,36.098068,-2.328955
-30.734961,36.098068,-2.228955
-30.78496,36.248066,-2.328955
-30.78496,36.198067,-2.228955
-30.834961,36.148067,-2.128955
-30.78496,36.098068,-2.128955
-30.734961,36.148067,-2.128955
-30.734961,36.198067,-2.128955
-30.63496,35.948067,-2.278955
-30.584961,35.948067,-2.228955
-30.53496,35.948067,-2.228955
-30.584961,35.998066,-2.328955
-30.684961,35.898067,-2.128955
-30.684961,36.048069,-2.128955
-30.584961,35.898067,-2.028955
-30.684961,36.148067,-2.328955
-30.684961,36.198067,-2.328955
-30.584961,36.148067,-2.228955
-30.684961,36.148067,-2.128955
-30.63496,36.148067,-2.028955
-30.684961,36.198067,-2.178955
-30.88496,36.398067,-2.678955
-30.88496,36.348068,-2.528955
-30.88496,36.448067,-2.528955
-30.78496,36.348068,-2.528955
-30.734961,36.348068,-2.528955
-30.834961,36.498066,-2.628955
-30.88496,36.498066,-2.478955
-30.78496,36.548069,-2.578955
-30.734961,36.548069,-2.578955
-30.734961,36.498066,-2.428955
-30.53496,36.398067,-2.628955
-30.684961,36.298069,-2.528955
-30.63496,36.298069,-2.578955
-30.684961,36.448067,-2.578955
-30.584961,36.548069,-2.628955
-30.684961,36.498066,-2.578955
-30.834961,36.348068,-2.328955
-30.88496,36.398067,-2.328955
-30.834961,36.398067,-2.328955
-30.88496,36.448067,-2.128955
-30.834961,36.448067,-2.128955
-30.88496,36.448067,-2.028955
-30.78496,36.398067,-2.028955
-30.734961,36.398067,-2.028955
-30.88496,36.548069,-2.228955
-30.88496,36.548069,-2.128955
-30.88496,36.548069,-2.028955
-30.834961,36.598068,-2.028955
-30.78496,36.598068,-2.028955
-30.78496,36.648067,-2.028955
-30.684961,36.298069,-2.378955
-30.63496,36.298069,-2.328955
-30.63496,36.398067,-2.378955
-30.684961,36.348068,-2.128955
-30.684961,36.448067,-2.128955
-30.63496,36.448067,-2.128955
-30.584961,36.448067,-2.028955
-30.53496,36.398067,-2.028955
-30.584961,36.498066,-2.378955
-30.53496,36.498066,-2.378955
-30.684961,36.648067,-2.028955
-30.63496,36.598068,-2.028955
-30.63496,36.648067,-2.028955
-30.584961,36.548069,-2.128955
-30.584961,36.648067,-2.028955
-30.53496,36.648067,-2.028955
-30.484961,35.998066,-2.578955
-30.334961,35.898067,-2.528955
-30.38496,35.898067,-2.478955
-30.484961,36.248066,-2.628955
-30.28496,35.948067,-2.728955
-30.28496,35.998066,-2.628955
-30.28496,36.048069,-2.628955
-30.184961,35.998066,-2.778955
-30.184961,35.998066,-2.528955
-30.234961,36.098068,-2.678955
-30.184961,36.198067,-2.578955
-30.484961,36.048069,-2.228955
-30.434961,35.998066,-2.228955
-30.484961,35.948067,-2.128955
-30.484961,35.998066,-2.128955
-30.434961,35.998066,-2.028955
-30.334961,35.898067,-2.178955
-30.38496,35.998066,-2.028955
-30.334961,35.998066,-2.028955
-30.434961,36.098068,-2.328955
-30.38496,36.148067,-2.328955
-30.334961,36.098068,-2.328955
-30.484961,36.098068,-2.128955
-30.434961,36.198067,-2.128955
-30.434961,36.248066,-2.128955
-30.38496,36.148067,-2.028955
-30.28496,35.948067,-2.028955
-30.234961,35.898067,-2.078955
-30.234961,35.998066,-2.128955
-30.234961,36.198067,-2.178955
-30.184961,36.098068,-2.128955
-30.184961,36.248066,-2.178955
-30.484961,36.398067,-2.628955
-30.334961,36.298069,-2.528955
-30.334961,36.348068,-2.528955
-30.38496,36.448067,-2.428955
-30.234961,36.348068,-2.728955
-30.234961,36.348068,-2.478955
-30.13496,36.498066,-2.528955
-30.484961,36.398067,-2.028955
-30.434961,36.498066,-2.378955
-30.484961,36.598068,-2.378955
-30.28496,36.298069,-2.028955
-30.28496,36.598068,-2.028955
-31.53496,36.798069,-3.228955
-31.434961,37.048069,-3.528955
-31.334961,37.048069,-3.378955
-31.63496,36.748066,-2.878955
-31.63496,36.848068,-2.878955
-31.63496,36.848068,-2.828955
-31.584961,36.698067,-2.928955
-31.53496,36.698067,-2.978955
-31.53496,36.748066,-2.928955
-31.584961,36.798069,-2.928955
-31.584961,36.848068,-2.828955
-31.63496,36.898067,-2.878955
-31.63496,36.948067,-2.828955
-31.584961,36.898067,-2.978955
-31.53496,36.948067,-2.828955
-31.584961,36.998066,-2.928955
-31.53496,37.048069,-2.978955
-31.38496,36.748066,-3.078955
-31.484961,36.698067,-2.878955
-31.434961,36.748066,-2.828955
-31.484961,36.798069,-2.978955
-31.434961,36.798069,-2.978955
-31.434961,36.798069,-2.928955
-31.38496,36.698067,-2.978955
-31.38496,36.748066,-2.928955
-31.484961,36.898067,-2.978955
-31.484961,36.948067,-2.878955
-31.53496,37.098068,-3.428955
-31.63496,37.248066,-3.278955
-31.584961,37.148067,-3.278955
-31.53496,37.198067,-3.278955
-31.684961,37.448067,-3.578955
-31.63496,37.398067,-3.228955
-31.53496,37.448067,-3.228955
-31.484961,37.098068,-3.478955
-31.484961,37.248066,-3.578955
-31.334961,37.148067,-3.228955
-31.434961,37.448067,-3.528955
-31.684961,37.148067,-3.078955
-31.63496,37.298069,-3.128955
-31.584961,37.348068,-3.128955
-31.53496,37.298069,-3.128955
-31.434961,37.098068,-3.028955
-31.484961,37.198067,-3.178955
-31.484961,37.248066,-3.078955
-31.38496,37.148067,-3.178955
-31.334961,37.348068,-3.078955
-31.38496,37.398067,-3.128955
-31.334961,37.398067,-3.128955
-31.484961,37.448067,-2.828955
-31.28496,36.848068,-3.028955
-31.234961,36.698067,-2.928955
-31.28496,36.748066,-2.878955
-31.234961,36.848068,-2.828955
-31.03496,36.698067,-3.078955
-31.084961,36.798069,-3.028955
-31.03496,36.848068,-2.828955
-31.03496,36.898067,-3.028955
-30.984961,36.948067,-3.028955
-31.184961,37.098068,-3.578955
-31.184961,37.098068,-3.528955
-31.184961,37.148067,-3.528955
-31.184961,37.198067,-3.228955
-31.28496,37.298069,-3.478955
-31.234961,37.398067,-3.428955
-31.234961,37.448067,-3.428955
-31.184961,37.398067,-3.478955
-31.03496,37.148067,-3.278955
-31.084961,37.248066,-3.228955
-31.03496,37.298069,-3.228955
-31.28496,37.248066,-3.178955
-31.28496,37.198067,-3.078955
-31.234961,37.248066,-3.078955
-31.184961,37.248066,-3.178955
-31.28496,37.348068,-3.128955
-31.234961,37.398067,-3.128955
-31.184961,37.448067,-3.128955
-30.934961,37.198067,-3.078955
-31.084961,37.398067,-3.078955
-30.984961,37.348068,-2.928955
-31.684961,36.698067,-2.628955
-31.53496,36.748066,-2.528955
-31.53496,36.748066,-2.428955
-31.53496,36.798069,-2.428955
-31.584961,36.898067,-2.578955
-31.584961,36.948067,-2.578955
-31.434961,36.748066,-2.728955
-31.484961,36.698067,-2.678955
-31.38496,36.798069,-2.778955
-31.434961,36.698067,-2.528955
-31.38496,36.998066,-2.478955
-31.684961,36.748066,-2.328955
-31.63496,36.848068,-2.328955
-31.584961,36.848068,-2.378955
-31.684961,36.748066,-2.128955
-31.63496,36.798069,-2.078955
-31.53496,36.698067,-2.128955
-31.53496,36.748066,-2.178955
-31.584961,36.848068,-2.178955
-31.63496,36.898067,-2.378955
-31.63496,36.948067,-2.328955
-31.584961,36.898067,-2.228955
-31.53496,37.048069,-2.328955
-31.63496,36.998066,-2.028955
-31.63496,37.048069,-2.078955
-31.584961,37.048069,-2.078955
-31.334961,36.698067,-2.178955
-31.334961,36.698067,-2.128955
-31.38496,36.698067,-2.078955
-31.584961,37.248066,-2.428955
-31.684961,37.298069,-2.728955
-31.684961,37.448067,-2.428955
-31.38496,37.398067,-2.478955
-31.684961,37.248066,-2.328955
-31.63496,37.198067,-2.228955
-31.63496,37.098068,-2.078955
-31.584961,37.248066,-2.078955
-31.684961,37.298069,-2.228955
-31.63496,37.298069,-2.278955
-31.684961,37.398067,-2.328955
-31.63496,37.298069,-2.078955
-31.53496,37.348068,-2.078955
-31.084961,36.748066,-2.778955
-31.084961,36.698067,-2.628955
-30.934961,36.698067,-2.728955
-31.03496,36.798069,-2.428955
-30.984961,37.048069,-2.578955
-31.13496,36.698067,-2.278955
-31.13496,36.798069,-2.278955
-31.28496,36.748066,-2.078955
-31.234961,36.748066,-2.078955
-31.084961,36.698067,-2.128955
-30.984961,36.698067,-2.128955
-30.984961,36.748066,-2.028955
-30.934961,36.798069,-2.028955
-31.184961,37.448067,-2.728955
-31.28496,37.448067,-2.478955
-31.03496,37.198067,-2.628955
-30.984961,37.098068,-2.578955
-31.084961,37.448067,-2.728955
-31.084961,37.398067,-2.478955
-31.684961,37.598068,-3.528955
-31.63496,37.648067,-3.528955
-31.63496,37.698067,-3.528955
-31.684961,37.798069,-3.478955
-31.63496,37.848068,-3.478955
-31.484961,37.548069,-3.478955
-31.484961,37.648067,-3.428955
-31.484961,37.498066,-3.228955
-31.484961,37.548069,-3.228955
-31.38496,37.548069,-3.228955
-31.484961,37.698067,-3.428955
-31.484961,37.848068,-3.378955
-31.684961,37.498066,-3.178955
-31.584961,37.848068,-3.128955
-31.53496,37.798069,-3.128955
-31.53496,37.798069,-2.978955
-31.53496,37.798069,-2.878955
-31.38496,37.648067,-3.078955
-31.38496,37.798069,-3.028955
-31.38496,37.848068,-2.928955
-31.38496,37.798069,-2.878955
-31.684961,37.898067,-3.428955
-31.484961,37.898067,-3.378955
-31.484961,37.998066,-3.328955
-31.63496,37.898067,-3.128955
-31.53496,37.898067,-3.128955
-31.584961,37.948067,-3.078955
-31.63496,38.148067,-3.128955
-31.684961,38.248066,-3.128955
-31.684961,38.248066,-2.978955
-31.434961,38.048069,-3.128955
-31.38496,37.948067,-3.078955
-31.434961,38.148067,-3.178955
-31.234961,37.548069,-3.378955
-31.234961,37.598068,-3.378955
-31.184961,37.698067,-3.378955
-30.984961,37.548069,-3.328955
-30.984961,37.598068,-3.278955
-31.234961,37.548069,-3.128955
-31.28496,37.598068,-2.978955
-31.13496,37.548069,-2.978955
-31.13496,37.648067,-2.978955
-31.13496,37.748066,-3.078955
-31.28496,37.798069,-2.928955
-30.984961,37.498066,-3.178955
-30.934961,37.498066,-3.028955
-31.084961,37.648067,-2.978955
-31.084961,37.698067,-2.928955
-31.084961,38.048069,-3.078955
-30.984961,38.048069,-3.078955
-31.03496,38.148067,-3.078955
-31.53496,37.748066,-2.528955
-31.484961,37.598068,-2.778955
-31.334961,37.598068,-2.578955
-31.434961,37.798069,-2.678955
-31.434961,37.798069,-2.628955
-31.334961,37.798069,-2.628955
-31.434961,37.748066,-2.528955
-31.434961,37.848068,-2.578955
-31.63496,37.548069,-2.228955
-31.684961,37.648067,-2.228955
-31.53496,37.498066,-2.228955
-31.53496,37.598068,-2.328955
-31.63496,37.748066,-2.328955
-31.434961,37.548069,-2.328955
-31.38496,37.498066,-2.328955
-31.334961,37.498066,-2.328955
-31.684961,37.948067,-2.778955
-31.334961,37.948067,-2.728955
-31.484961,38.048069,-2.528955
-31.334961,37.998066,-2.478955
-31.63496,37.998066,-2.028955
-31.584961,37.948067,-2.028955
-31.684961,38.098068,-2.378955
-31.584961,38.148067,-2.228955
-31.434961,38.248066,-2.178955
-31.38496,38.148067,-2.178955
-31.28496,37.598068,-2.678955
-31.13496,37.498066,-2.728955
-31.13496,37.598068,-2.728955
-31.03496,37.498066,-2.728955
-31.03496,37.648067,-2.678955
-30.984961,37.498066,-2.728955
-30.934961,37.648067,-2.678955
-31.184961,37.498066,-2.328955
-31.13496,38.048069,-2.478955
-31.084961,38.048069,-2.478955
-31.13496,37.998066,-2.028955
-31.13496,38.248066,-2.328955
-31.03496,38.148067,-2.278955
-30.934961,38.098068,-2.278955
-30.934961,38.148067,-2.278955
-30.78496,36.998066,-3.528955
-30.734961,36.998066,-3.528955
-30.734961,37.298069,-3.278955
-30.63496,37.448067,-3.428955
-30.88496,37.098068,-3.128955
-30.88496,37.348068,-2.928955
-30.63496,37.348068,-3.078955
-30.38496,36.798069,-2.878955
-30.28496,37.348068,-3.128955
-30.234961,37.348068,-3.128955
-30.13496,37.348068,-3.178955
-30.234961,37.348068,-2.978955
-30.28496,37.398067,-2.928955
-30.234961,37.398067,-2.928955
-30.88496,36.698067,-2.728955
-30.734961,36.898067,-2.728955
-30.63496,36.998066,-2.578955
-30.834961,36.748066,-2.178955
-30.584961,36.698067,-2.378955
-30.684961,36.698067,-2.178955
-30.684961,36.748066,-2.028955
-30.63496,36.748066,-2.028955
-30.63496,36.898067,-2.028955
-30.53496,36.948067,-2.078955
-30.584961,36.998066,-2.028955
-30.88496,37.298069,-2.778955
-30.684961,37.248066,-2.778955
-30.584961,37.348068,-2.778955
-30.53496,37.298069,-2.778955
-30.484961,36.798069,-2.528955
-30.334961,36.748066,-2.528955
-30.334961,36.798069,-2.528955
-30.184961,36.848068,-2.428955
-30.434961,36.898067,-2.178955
-30.28496,36.798069,-2.178955
-30.434961,37.298069,-2.778955
-30.434961,37.348068,-2.778955
-30.78496,37.648067,-3.328955
-30.834961,37.698067,-3.328955
-30.834961,37.848068,-3.278955
-30.63496,37.648067,-3.028955
-30.63496,37.748066,-3.178955
-30.53496,37.848068,-3.178955
-30.734961,37.898067,-3.278955
-30.28496,37.548069,-3.278955
-30.234961,37.548069,-3.278955
-30.13496,37.648067,-3.278955
-30.234961,37.748066,-3.228955
-30.28496,37.848068,-3.228955
-30.234961,37.798069,-3.228955
-30.13496,37.848068,-3.228955
-30.88496,37.798069,-2.078955
-30.834961,37.798069,-2.028955
-30.184961,37.498066,-2.728955
-30.38496,37.498066,-2.228955
-30.484961,37.698067,-2.178955
-30.334961,37.898067,-2.128955
-29.934961,35.098068,-3.078955
-29.984961,35.148067,-2.928955
-29.934961,35.198067,-2.928955
-29.984961,35.248066,-2.828955
-29.934961,35.398067,-3.028955
-29.934961,35.398067,-2.828955
-29.834961,35.148067,-3.078955
-29.78496,35.148067,-3.128955
-29.734961,35.148067,-3.128955
-29.734961,35.148067,-3.078955
-29.734961,35.198067,-3.178955
-29.88496,35.448067,-3.078955
-29.734961,35.398067,-2.928955
-30.03496,35.598068,-3.078955
-30.03496,35.648067,-3.078955
-30.03496,35.548069,-2.928955
-30.084961,35.598068,-2.978955
-29.684961,35.098068,-3.078955
-29.684961,35.148067,-3.078955
-29.584961,35.098068,-3.078955
-29.684961,35.448067,-3.028955
-29.584961,35.398067,-2.828955
-29.484961,35.148067,-3.128955
-29.434961,35.148067,-3.178955
-29.434961,35.148067,-3.028955
-29.484961,35.198067,-3.128955
-29.63496,35.548069,-2.978955
-29.584961,35.598068,-2.928955
-29.584961,35.648067,-2.878955
-29.984961,35.198067,-2.778955
-29.934961,35.248066,-2.728955
-29.984961,35.248066,-2.678955
-30.084961,35.198067,-2.578955
-29.934961,35.098068,-2.578955
-30.084961,35.448067,-2.678955
-30.03496,35.398067,-2.678955
-30.084961,35.298069,-2.578955
-30.03496,35.348068,-2.578955
-30.03496,35.398067,-2.578955
-29.984961,35.298069,-2.478955
-29.984961,35.298069,-2.428955
-29.934961,35.448067,-2.528955
-29.78496,35.198067,-2.778955
-29.834961,35.298069,-2.528955
-29.88496,35.348068,-2.428955
-29.78496,35.398067,-2.428955
-29.934961,35.098068,-2.328955
-29.984961,35.248066,-2.228955
-30.03496,35.148067,-2.128955
-30.03496,35.198067,-2.128955
-29.984961,35.098068,-2.128955
-29.934961,35.148067,-2.128955
-29.934961,35.148067,-2.078955
-29.934961,35.198067,-2.028955
-30.03496,35.298069,-2.328955
-30.084961,35.448067,-2.378955
-30.03496,35.398067,-2.328955
-29.934961,35.398067,-2.228955
-30.084961,35.398067,-2.128955
-30.03496,35.398067,-2.128955
-29.934961,35.348068,-2.128955
-29.88496,35.148067,-2.228955
-29.78496,35.148067,-2.228955
-29.734961,35.198067,-2.228955
-29.834961,35.198067,-2.028955
-29.734961,35.248066,-2.028955
-29.834961,35.398067,-2.228955
-29.834961,35.298069,-2.128955
-29.78496,35.348068,-2.128955
-29.734961,35.398067,-2.128955
-29.78496,35.448067,-2.028955
-30.03496,35.498066,-2.628955
-30.084961,35.598068,-2.628955
-29.984961,35.498066,-2.728955
-30.084961,35.498066,-2.578955
-30.084961,35.498066,-2.478955
-30.084961,35.598068,-2.428955
-29.984961,35.498066,-2.528955
-29.934961,35.498066,-2.528955
-29.934961,35.548069,-2.528955
-29.984961,35.498066,-2.428955
-29.984961,35.748066,-2.678955
-29.984961,35.848068,-2.678955
-30.084961,35.748066,-2.428955
-30.084961,35.798069,-2.428955
-30.03496,35.798069,-2.428955
-29.834961,35.648067,-2.478955
-29.78496,35.548069,-2.578955
-29.78496,35.548069,-2.478955
-29.734961,35.498066,-2.478955
-29.88496,35.748066,-2.678955
-29.88496,35.848068,-2.678955
-29.834961,35.698067,-2.578955
-29.834961,35.748066,-2.578955
-30.084961,35.548069,-2.328955
-29.984961,35.548069,-2.228955
-29.934961,35.598068,-2.328955
-30.084961,35.548069,-2.028955
-30.084961,35.648067,-2.028955
-30.03496,35.648067,-2.028955
-30.03496,35.798069,-2.128955
-30.03496,35.848068,-2.128955
-30.084961,35.848068,-2.028955
-29.984961,35.848068,-2.128955
-29.88496,35.598068,-2.328955
-29.78496,35.498066,-2.328955
-29.88496,35.548069,-2.128955
-29.88496,35.548069,-2.028955
-29.734961,35.698067,-2.378955
-29.734961,35.748066,-2.278955
-29.584961,35.148067,-2.278955
-29.53496,35.098068,-2.278955
-29.53496,35.448067,-2.028955
-29.684961,35.548069,-2.478955
-29.63496,35.498066,-2.478955
-29.684961,35.598068,-2.478955
-29.684961,35.548069,-2.278955
-29.684961,35.798069,-2.278955
-29.63496,35.848068,-2.278955
-29.984961,35.948067,-2.828955
-29.984961,36.398067,-3.228955
-30.084961,35.898067,-2.778955
-30.03496,35.948067,-2.678955
-30.084961,35.998066,-2.678955
-30.03496,35.998066,-2.678955
-29.934961,35.948067,-2.678955
-30.084961,35.998066,-2.478955
-29.984961,35.898067,-2.528955
-29.88496,35.898067,-2.378955
-29.78496,35.998066,-2.378955
-29.734961,36.248066,-2.278955
-30.084961,36.348068,-2.628955
-29.984961,36.598068,-2.428955
-29.734961,36.298069,-2.428955
-29.984961,36.548069,-2.278955
-29.834961,36.398067,-2.278955
-29.734961,36.298069,-2.128955
-29.684961,36.298069,-2.128955
-29.934961,37.298069,-3.378955
-30.03496,36.698067,-2.178955
-30.03496,37.498066,-3.328955
-30.084961,37.598068,-3.328955
-30.03496,37.648067,-3.278955
-31.334961,35.148067,-1.878955
-31.334961,35.248066,-1.778955
-31.434961,35.448067,-1.828955
-31.38496,35.398067,-1.828955
-31.334961,35.448067,-1.828955
-31.434961,35.348068,-1.628955
-31.484961,35.398067,-1.778955
-31.434961,35.448067,-1.778955
-31.484961,35.398067,-1.628955
-31.434961,35.448067,-1.628955
-31.334961,35.348068,-1.728955
-31.334961,35.298069,-1.628955
-31.38496,35.398067,-1.628955
-31.434961,35.248066,-1.328955
-31.334961,35.098068,-1.378955
-31.38496,35.148067,-1.278955
-31.38496,35.198067,-1.328955
-31.334961,35.248066,-1.378955
-31.38496,35.198067,-1.228955
-31.38496,35.248066,-1.278955
-31.484961,35.398067,-1.528955
-31.484961,35.398067,-1.428955
-31.38496,35.348068,-1.478955
-31.434961,35.398067,-1.328955
-31.38496,35.348068,-1.378955
-31.38496,35.298069,-1.278955
-31.334961,35.398067,-1.328955
-31.38496,35.398067,-1.278955
-31.38496,35.448067,-1.278955
-31.334961,35.398067,-1.228955
-31.53496,35.548069,-1.828955
-31.53496,35.548069,-1.778955
-31.53496,35.598068,-1.778955
-31.63496,35.848068,-1.878955
-31.584961,35.848068,-1.878955
-31.53496,35.798069,-1.628955
-31.434961,35.498066,-1.928955
-31.434961,35.548069,-1.878955
-31.434961,35.548069,-1.828955
-31.434961,35.648067,-1.928955
-31.434961,35.648067,-1.828955
-31.38496,35.498066,-1.878955
-31.334961,35.498066,-1.828955
-31.38496,35.598068,-1.878955
-31.334961,35.648067,-1.878955
-31.334961,35.648067,-1.828955
-31.484961,35.498066,-1.628955
-31.484961,35.648067,-1.728955
-31.334961,35.498066,-1.728955
-31.38496,35.548069,-1.678955
-31.38496,35.548069,-1.628955
-31.38496,35.598068,-1.728955
-31.484961,35.748066,-1.978955
-31.484961,35.748066,-1.928955
-31.434961,35.698067,-1.928955
-31.484961,35.798069,-1.978955
-31.434961,35.798069,-1.978955
-31.334961,35.698067,-1.978955
-31.38496,35.698067,-1.878955
-31.434961,35.698067,-1.628955
-31.434961,35.748066,-1.628955
-31.434961,35.798069,-1.728955
-31.334961,35.698067,-1.678955
-31.334961,35.848068,-1.778955
-31.63496,35.798069,-1.578955
-31.63496,35.848068,-1.578955
-31.63496,35.848068,-1.528955
-31.584961,35.798069,-1.528955
-31.484961,35.598068,-1.578955
-31.38496,35.498066,-1.578955
-31.434961,35.748066,-1.528955
-31.334961,35.698067,-1.528955
-31.334961,35.698067,-1.478955
-31.38496,35.798069,-1.528955
-31.184961,35.248066,-1.728955
-31.234961,35.448067,-1.978955
-31.184961,35.298069,-1.878955
-31.13496,35.398067,-1.928955
-31.13496,35.448067,-1.978955
-31.28496,35.448067,-1.678955
-30.984961,35.248066,-1.978955
-31.03496,35.098068,-1.628955
-31.03496,35.198067,-1.628955
-30.984961,35.148067,-1.678955
-30.934961,35.098068,-1.628955
-30.934961,35.248066,-1.728955
-30.984961,35.248066,-1.678955
-30.984961,35.248066,-1.628955
-31.03496,35.348068,-1.928955
-31.03496,35.448067,-1.928955
-30.934961,35.348068,-1.928955
-30.984961,35.398067,-1.928955
-30.984961,35.398067,-1.828955
-30.934961,35.448067,-1.878955
-31.084961,35.298069,-1.628955
-31.03496,35.398067,-1.628955
-30.934961,35.298069,-1.778955
-30.934961,35.298069,-1.728955
-30.984961,35.448067,-1.778955
-31.234961,35.198067,-1.528955
-31.28496,35.248066,-1.478955
-31.13496,35.148067,-1.528955
-31.184961,35.098068,-1.478955
-31.184961,35.248066,-1.578955
-31.184961,35.248066,-1.528955
-31.234961,35.098068,-1.328955
-31.234961,35.148067,-1.328955
-31.234961,35.098068,-1.228955
-31.28496,35.198067,-1.378955
-31.28496,35.198067,-1.278955
-31.184961,35.148067,-1.328955
-31.13496,35.148067,-1.378955
-31.184961,35.198067,-1.328955
-31.184961,35.248066,-1.378955
-31.13496,35.248066,-1.378955
-31.28496,35.398067,-1.478955
-31.234961,35.398067,-1.428955
-31.234961,35.448067,-1.428955
-31.13496,35.298069,-1.528955
-31.184961,35.298069,-1.478955
-31.184961,35.348068,-1.478955
-31.13496,35.398067,-1.578955
-31.13496,35.448067,-1.478955
-31.234961,35.298069,-1.378955
-31.234961,35.348068,-1.378955
-31.234961,35.348068,-1.328955
-31.28496,35.398067,-1.378955
-31.28496,35.448067,-1.278955
-31.184961,35.298069,-1.228955
-31.084961,35.098068,-1.528955
-31.084961,35.198067,-1.578955
-31.03496,35.248066,-1.528955
-30.984961,35.148067,-1.578955
-30.984961,35.198067,-1.528955
-30.984961,35.248066,-1.528955
-31.084961,35.448067,-1.578955
-31.03496,35.398067,-1.478955
-30.984961,35.398067,-1.428955
-31.28496,35.648067,-1.928955
-31.13496,35.498066,-1.878955
-31.13496,35.548069,-1.878955
-31.184961,35.648067,-1.878955
-31.234961,35.548069,-1.778955
-31.28496,35.548069,-1.678955
-31.234961,35.498066,-1.678955
-31.28496,35.648067,-1.628955
-31.234961,35.648067,-1.678955
-31.184961,35.498066,-1.778955
-31.13496,35.548069,-1.778955
-31.184961,35.598068,-1.778955
-31.28496,35.698067,-1.878955
-31.234961,35.698067,-1.878955
-31.13496,35.698067,-1.928955
-31.28496,35.698067,-1.628955
-31.28496,35.848068,-1.678955
-31.234961,35.798069,-1.628955
-31.184961,35.698067,-1.628955
-31.184961,35.798069,-1.628955
-31.13496,35.798069,-1.628955
-31.03496,35.498066,-1.978955
-30.984961,35.498066,-1.978955
-31.084961,35.548069,-1.728955
-31.03496,35.498066,-1.778955
-31.084961,35.548069,-1.678955
-31.03496,35.498066,-1.678955
-31.084961,35.598068,-1.778955
-31.03496,35.598068,-1.728955
-30.984961,35.498066,-1.728955
-31.084961,35.848068,-1.978955
-31.03496,35.848068,-1.828955
-30.984961,35.698067,-1.928955
-31.234961,35.548069,-1.428955
-31.28496,35.598068,-1.578955
-31.234961,35.598068,-1.528955
-31.28496,35.598068,-1.478955
-31.28496,35.598068,-1.428955
-31.184961,35.548069,-1.578955
-31.13496,35.498066,-1.428955
-31.184961,35.648067,-1.528955
-31.13496,35.648067,-1.528955
-31.28496,35.648067,-1.378955
-31.28496,35.698067,-1.378955
-31.184961,35.698067,-1.278955
-31.084961,35.548069,-1.578955
-31.03496,35.648067,-1.578955
-30.934961,35.498066,-1.528955
-31.084961,35.798069,-1.578955
-31.434961,35.398067,-1.028955
-31.38496,35.298069,-1.178955
-31.334961,35.298069,-1.128955
-31.334961,35.398067,-1.078955
-31.38496,35.448067,-0.978955
-31.334961,35.398067,-0.978955
-31.434961,35.398067,-0.478955
-31.334961,35.348068,-0.478955
-31.334961,35.498066,-1.178955
-31.484961,35.498066,-0.728955
-31.28496,35.248066,-1.178955
-31.28496,35.248066,-1.128955
-31.13496,35.248066,-1.028955
-31.234961,35.298069,-1.028955
-31.234961,35.448067,-1.078955
-31.184961,35.348068,-1.178955
-31.184961,35.448067,-1.078955
-31.13496,35.448067,-1.078955
-31.03496,35.198067,-1.178955
-30.934961,35.248066,-1.178955
-31.03496,35.248066,-0.928955
-31.03496,35.298069,-0.928955
-31.184961,35.198067,-0.628955
-31.28496,35.148067,-0.478955
-31.234961,35.098068,-0.478955
-31.28496,35.448067,-0.728955
-31.184961,35.748066,-1.178955
-31.084961,35.498066,-1.078955
-31.084961,35.598068,-1.078955
-30.934961,35.848068,-1.178955
-30.984961,35.848068,-1.078955
-31.684961,36.048069,-1.928955
-31.63496,35.948067,-1.728955
-31.53496,36.098068,-1.878955
-31.53496,36.148067,-1.878955
-31.584961,36.198067,-1.978955
-31.434961,35.948067,-1.978955
-31.334961,35.998066,-1.928955
-31.334961,35.998066,-1.678955
-31.334961,36.198067,-1.978955
-31.684961,36.248066,-1.428955
-31.53496,36.098068,-1.378955
-31.334961,36.248066,-1.278955
-31.63496,36.298069,-1.928955
-31.684961,36.448067,-1.878955
-31.63496,36.448067,-1.878955
-31.684961,36.448067,-1.628955
-31.584961,36.548069,-1.978955
-31.53496,36.498066,-1.978955
-31.584961,36.548069,-1.878955
-31.53496,36.498066,-1.878955
-31.63496,36.498066,-1.728955
-31.684961,36.598068,-1.678955
-31.584961,36.548069,-1.728955
-31.584961,36.648067,-1.728955
-31.434961,36.298069,-1.878955
-31.484961,36.348068,-1.678955
-31.434961,36.398067,-1.678955
-31.334961,36.448067,-1.628955
-31.484961,36.498066,-1.978955
-31.434961,36.498066,-1.978955
-31.38496,36.548069,-1.978955
-31.38496,36.498066,-1.878955
-31.334961,36.598068,-1.978955
-31.334961,36.648067,-1.978955
-31.38496,36.598068,-1.878955
-31.434961,36.598068,-1.778955
-31.334961,36.648067,-1.778955
-31.38496,36.648067,-1.628955
-31.53496,36.348068,-1.528955
-31.684961,36.298069,-1.278955
-31.63496,36.348068,-1.278955
-31.63496,36.398067,-1.228955
-31.53496,36.498066,-1.578955
-31.484961,36.348068,-1.528955
-31.334961,36.348068,-1.428955
-31.484961,36.498066,-1.378955
-31.28496,35.948067,-1.978955
-31.28496,35.948067,-1.928955
-31.234961,35.898067,-1.678955
-31.03496,36.048069,-1.878955
-30.934961,36.098068,-1.978955
-30.984961,36.198067,-1.978955
-31.03496,35.898067,-1.578955
-31.03496,35.948067,-1.578955
-31.03496,35.898067,-1.478955
-30.934961,35.898067,-1.578955
-30.934961,35.998066,-1.528955
-31.084961,35.898067,-1.328955
-31.03496,35.898067,-1.328955
